# .PCD v0.7 - Point Cloud Data file format
VERSION 0.7
FIELDS x y z rgba
SIZE 4 4 4 4
TYPE F F F U
COUNT 1 1 1 1
WIDTH 1174
HEIGHT 1
VIEWPOINT 0 0 0 1 0 0 0
POINTS 1174
DATA ascii
929.73267 72.616325 59.379856 4294967295
942.22937 59.380112 66.187576 4294967295
918.96716 38.915627 59.599251 4294967295
882.99542 49.393848 52.289616 4294967295
917.96503 47.388176 42.354565 4294967295
928.69653 78.831779 49.375584 4294967295
942.7572 12.641605 71.381691 4294967295
919.65051 35.427498 45.022396 4294967295
909.3042 62.077042 64.928986 4294967295
918.85852 15.916578 59.623611 4294967295
912.6557 30.467552 37.320122 4294967295
911.70251 38.195583 55.369164 4294967295
923.69928 73.541779 35.29528 4294967295
917.25287 36.106091 38.865593 4294967295
934.9444 46.241592 55.171055 4294967295
930.61548 9.7065706 60.178211 4294967295
905.06683 17.105743 73.775597 4294967295
932.89868 51.125511 30.721783 4294967295
896.60333 64.139061 68.200836 4294967295
930.53772 13.558267 19.946011 4294967295
881.9906 22.870554 36.522186 4294967295
904.73114 52.14529 56.256737 4294967295
933.54999 25.025127 30.768181 4294967295
920.11542 53.414993 -5.8046174 4294967295
914.73792 73.487114 47.149284 4294967295
906.7124 58.6917 41.876163 4294967295
913.04993 44.087788 34.325256 4294967295
902.22217 12.485323 42.889088 4294967295
923.01672 45.666332 32.807091 4294967295
885.28406 39.029613 16.99667 4294967295
900.09833 43.03664 52.445679 4294967295
867.80011 46.659252 21.887608 4294967295
876.38269 50.517181 31.05541 4294967295
894.11121 38.372833 62.702579 4294967295
896.50073 29.16501 29.959206 4294967295
901.33319 41.333855 -3.5136631 4294967295
900.66559 61.095974 46.802814 4294967295
888.3457 46.335808 3.0125935 4294967295
893.03308 19.181837 43.590866 4294967295
904.46484 23.213774 48.913311 4294967295
908.33984 44.774586 42.031349 4294967295
888.09601 58.482704 3.9279387 4294967295
866.86725 46.039509 14.083392 4294967295
884.18896 48.906448 28.067156 4294967295
888.25061 38.595333 29.702745 4294967295
893.26691 23.356468 37.907246 4294967295
883.89716 40.531448 40.120865 4294967295
866.53729 60.77417 -0.96474206 4294967295
888.91858 70.979942 20.861517 4294967295
889.9657 19.18343 25.567411 4294967295
859.48169 28.645193 36.368401 4294967295
866.07983 40.803665 50.248394 4294967295
881.14673 -0.98985308 29.616682 4294967295
880.07355 24.245512 49.982224 4294967295
888.39899 56.039467 47.967102 4294967295
853.67657 20.068792 37.126675 4294967295
883.88513 30.284393 28.060663 4294967295
864.13239 31.858831 19.221628 4294967295
892.26489 26.168543 53.31778 4294967295
837.3374 55.169567 40.27932 4294967295
873.41766 58.358627 45.105648 4294967295
890.94873 32.213123 38.853012 4294967295
894.99756 53.849518 36.512581 4294967295
866.82672 28.859272 39.396053 4294967295
884.22705 33.568062 47.106403 4294967295
867.05621 46.897297 62.597881 4294967295
868.19604 72.858551 32.540272 4294967295
871.43677 58.618534 88.517456 4294967295
884.61206 67.617912 63.007137 4294967295
910.19623 36.235229 7.3318825 4294967295
889.96997 24.925926 83.435555 4294967295
882.48688 47.616634 84.155861 4294967295
862.61188 84.344528 46.492344 4294967295
886.04797 46.560307 32.653 4294967295
884.85754 16.725767 62.449757 4294967295
879.99622 42.554382 58.469296 4294967295
895.57056 22.100634 71.789986 4294967295
860.81836 60.652611 41.958271 4294967295
890.46783 54.926037 68.018517 4294967295
872.30798 24.768406 38.399067 4294967295
872.36877 40.65329 36.796539 4294967295
887.9328 53.586796 65.029327 4294967295
892.81476 42.399036 53.029469 4294967295
881.81537 43.361202 79.100121 4294967295
903.32507 42.921005 87.366905 4294967295
891.28876 42.355713 87.159889 4294967295
907.1463 23.331942 67.558311 4294967295
876.28741 18.435776 84.130753 4294967295
891.47406 -23.055025 54.676235 4294967295
875.97888 53.725124 60.821087 4294967295
859.39136 73.0783 67.487961 4294967295
893.3772 36.113075 93.634407 4294967295
923.30035 33.502922 62.911701 4294967295
909.90015 21.113815 58.727577 4294967295
876.11768 49.268967 69.273369 4294967295
899.67908 929.59198 4.5796471 4294967295
927.44958 971.45026 -11.453143 4294967295
921.16089 911.82562 0.93729067 4294967295
882.08453 877.9245 -26.51111 4294967295
908.50189 1005.6324 13.169086 4294967295
890.18268 1040.0721 5.4642987 4294967295
876.49567 1060.8097 71.045219 4294967295
931.3949 1079.5583 40.095852 4294967295
876.04523 1147.2 92.013573 4294967295
926.79901 1156.058 56.435001 4294967295
902.87018 1169.9386 102.32762 4294967295
911.14691 1165.1022 88.188492 4294967295
905.38037 1244.4919 120.1386 4294967295
924.5119 1253.7281 119.70312 4294967295
971.8891 948.33075 20.233414 4294967295
934.88403 887.13739 6.9763665 4294967295
951.89929 1025.2091 56.429951 4294967295
912.38501 1070.9301 33.430557 4294967295
906.41187 1143.9126 91.006599 4294967295
921.51929 1185.4426 114.88373 4294967295
914.19586 1237.5719 113.10741 4294967295
944.27686 955.69666 18.951088 4294967295
989.64569 910.03656 28.912863 4294967295
950.25934 1003.533 54.452335 4294967295
971.16577 1070.9167 56.05896 4294967295
938.08722 1140.4696 118.90658 4294967295
901.62708 1185.3953 132.61218 4294967295
899.68018 1245.0598 127.65606 4294967295
993.03693 953.3324 60.429131 4294967295
968.75641 905.08704 56.399277 4294967295
961.81366 992.2608 84.039864 4294967295
964.05396 1066.4429 60.24152 4294967295
955.3158 1144.7539 106.11023 4294967295
937.60291 1189.97 139.77187 4294967295
883.6308 1242.7068 143.0898 4294967295
945.60431 943.02002 83.096954 4294967295
986.79077 903.591 92.866196 4294967295
956.62939 1009.8329 83.151466 4294967295
982.71063 1086.7947 80.548782 4294967295
928.05005 1127.782 112.52366 4294967295
923.58008 1202.9701 111.73186 4294967295
908.52112 1214.8607 142.68796 4294967295
982.2608 960.15948 119.83339 4294967295
1000.5007 914.6991 84.030762 4294967295
966.98596 1017.4573 92.373459 4294967295
950.86737 1088.0599 123.68028 4294967295
928.27118 1163.2079 125.36457 4294967295
884.59235 1183.9183 164.037 4294967295
869.47424 1225.3977 172.44565 4294967295
950.28357 931.87537 138.65062 4294967295
986.89716 865.32788 121.73465 4294967295
949.77087 1000.4351 112.01271 4294967295
938.18872 1054.3656 135.94382 4294967295
963.59625 1140.1699 136.58557 4294967295
922.3316 1234.6403 161.0423 4294967295
923.22583 1244.4368 169.53893 4294967295
930.37329 973.67542 111.47444 4294967295
969.63367 918.09625 140.29036 4294967295
934.00696 1011.2408 126.29392 4294967295
921.06891 1096.035 144.07405 4294967295
906.52002 1145.7454 123.14189 4294967295
900.86487 1196.2588 155.34778 4294967295
891.7149 1255.2408 157.69598 4294967295
913.5639 943.78296 144.68971 4294967295
925.5329 895.02838 154.97557 4294967295
898.67859 1010.8372 166.16635 4294967295
933.1239 1061.6616 162.84457 4294967295
916.25928 1120.458 113.6893 4294967295
927.20697 1193.7019 143.75256 4294967295
914.20178 1242.3835 159.66435 4294967295
882.65521 957.31805 173.09897 4294967295
908.01721 895.16296 182.15814 4294967295
901.61932 1009.3135 141.28017 4294967295
892.54089 1082.4548 165.6781 4294967295
909.17548 1122.0969 159.06134 4294967295
886.56073 1210.8097 168.94073 4294967295
915.9599 1235.1854 140.34241 4294967295
892.32611 98.162926 -17.844692 4294967295
895.04169 132.06984 -17.937363 4294967295
882.39386 54.587433 6.0682378 4294967295
884.88623 192.87164 -7.2256727 4294967295
934.77576 177.43097 14.821569 4294967295
886.4884 245.50562 6.3952427 4294967295
920.64197 241.09505 0.51745421 4294967295
921.79089 114.096 6.1602421 4294967295
949.09766 156.50038 27.714119 4294967295
951.14111 245.203 9.1382627 4294967295
945.25757 118.5983 37.070976 4294967295
976.79156 167.4201 10.456939 4294967295
963.09595 247.40472 24.374844 4294967295
967.37476 102.40701 29.49349 4294967295
963.02966 145.61888 59.753647 4294967295
986.09857 260.12839 50.700226 4294967295
948.78705 137.31212 74.837685 4294967295
994.47906 161.20874 52.693222 4294967295
981.25934 241.01871 79.569092 4294967295
973.13702 93.596489 54.685539 4294967295
998.55194 183.49699 68.330444 4294967295
985.14136 241.49179 92.659859 4294967295
953.26392 98.830582 91.906151 4294967295
950.4989 152.92218 114.34554 4294967295
977.84662 231.05902 128.0472 4294967295
931.42682 99.028099 111.46133 4294967295
930.3504 175.48497 125.82816 4294967295
930.43018 227.96735 131.99638 4294967295
905.36951 127.24059 129.6369 4294967295
964.35883 159.6982 116.7298 4294967295
925.38019 247.73807 172.9444 4294967295
890.85004 107.66785 132.65649 4294967295
900.65167 167.08156 139.73271 4294967295
890.40717 240.26831 154.31116 4294967295
893.90009 470.48471 -1.1781083 4294967295
928.95831 478.04565 -16.717545 4294967295
931.48853 429.56775 -28.127148 4294967295
921.60406 404.71469 -51.165939 4294967295
888.17542 548.96759 -56.545708 4294967295
914.10699 566.53546 -24.289614 4294967295
925.50775 606.08862 -37.226635 4294967295
941.67499 585.07086 -29.294035 4294967295
894.11627 681.05444 -19.785587 4294967295
931.65869 651.29889 12.331829 4294967295
915.96655 715.85181 8.2646198 4294967295
915.4411 747.26257 -18.866989 4294967295
945.77417 489.44608 -4.6604257 4294967295
938.48315 432.21271 -2.3874652 4294967295
966.5376 529.76611 -19.982307 4294967295
981.7243 569.81592 -30.376633 4294967295
966.92694 648.15906 -13.691924 4294967295
954.07257 706.42676 27.87645 4294967295
978.74255 475.85654 -5.962028 4294967295
977.33057 402.69089 29.270374 4294967295
966.34192 537.96295 20.597883 4294967295
964.47876 603.50671 4.0560317 4294967295
966.28864 642.3288 16.747261 4294967295
982.32849 741.53339 17.848293 4294967295
967.54553 472.57983 18.550781 4294967295
972.35645 426.36966 78.651344 4294967295
949.69293 529.77228 34.951778 4294967295
991.63214 606.28082 47.639832 4294967295
982.76837 635.50916 27.94014 4294967295
989.85992 725.50098 38.373009 4294967295
949.0755 472.66876 65.32312 4294967295
968.95844 433.30991 77.845619 4294967295
988.17383 514.87408 65.786057 4294967295
969.59033 590.15839 71.376587 4294967295
969.88568 662.60187 100.018 4294967295
991.70795 697.04517 70.638268 4294967295
1007.3996 500.05048 100.50284 4294967295
1004.6361 453.3006 88.050117 4294967295
964.95544 554.69635 81.910629 4294967295
973.46643 609.91736 92.040016 4294967295
967.96576 654.13843 81.599129 4294967295
986.88086 700.31097 120.80334 4294967295
968.7998 472.14587 148.61049 4294967295
970.47064 442.45798 129.50827 4294967295
980.53461 551.11536 105.36995 4294967295
959.42511 611.81543 107.06127 4294967295
946.04767 654.88367 125.48715 4294967295
942.41199 734.51312 105.48248 4294967295
965.30493 480.96503 134.28474 4294967295
942.87451 425.18762 151.10672 4294967295
947.4549 534.29498 125.15144 4294967295
929.58124 604.32367 153.61668 4294967295
941.32178 643.76917 155.78113 4294967295
951.40155 733.55988 134.58662 4294967295
915.28992 478.22049 128.2569 4294967295
937.39178 405.55185 146.76039 4294967295
917.78717 538.28522 145.4147 4294967295
913.04272 587.21405 137.68185 4294967295
931.61383 658.61169 163.26317 4294967295
940.84595 706.94116 142.79747 4294967295
896.76642 468.83823 154.4124 4294967295
901.53174 424.9841 150.01027 4294967295
877.1366 538.22876 153.50061 4294967295
905.38086 615.67822 142.71202 4294967295
868.44403 669.04138 143.24463 4294967295
879.41467 723.24304 161.10153 4294967295
887.29242 310.36008 -18.729876 4294967295
920.82825 296.5849 -29.291988 4294967295
930.40479 368.34268 -19.478586 4294967295
916.73346 353.01352 2.0910921 4294967295
955.46161 287.09314 7.9643025 4294967295
965.89966 367.54584 22.289827 4294967295
946.27979 295.90433 17.751875 4294967295
940.53296 393.29727 28.914736 4294967295
966.20038 314.31781 48.641605 4294967295
975.28009 340.54968 41.545223 4294967295
991.61139 320.4223 70.290443 4294967295
973.21594 360.82361 59.1082 4294967295
959.1037 315.383 85.433502 4294967295
977.56732 352.10626 83.456261 4294967295
972.90417 271.63605 117.14941 4294967295
960.69177 342.94327 126.16366 4294967295
956.68195 291.90482 147.62141 4294967295
966.91052 356.57364 162.45903 4294967295
906.2337 318.83286 157.97791 4294967295
903.09003 339.75082 167.47821 4294967295
883.16302 284.5032 129.57817 4294967295
898.15405 363.65756 172.23578 4294967295
888.25018 768.38342 -19.980373 4294967295
926.95416 770.32617 -15.498314 4294967295
891.60321 850.16748 -2.9883995 4294967295
908.47266 825.36072 -16.738209 4294967295
932.71545 767.57166 11.938834 4294967295
949.79449 830.93372 25.991169 4294967295
960.44006 762.58154 43.476276 4294967295
953.71173 842.72186 28.13307 4294967295
1005.5312 761.44916 39.089359 4294967295
1012.4797 824.09546 59.530624 4294967295
984.32947 762.89923 61.108456 4294967295
975.82758 849.83643 85.376167 4294967295
980.83307 769.33984 98.781296 4294967295
971.5567 814.90527 93.087364 4294967295
960.06 781.83362 120.96247 4294967295
986.01019 811.17529 108.29379 4294967295
947.48932 788.76996 85.667603 4294967295
965.50909 842.88855 137.79373 4294967295
894.86584 780.63574 159.93076 4294967295
921.64539 849.5719 180.86566 4294967295
862.39789 780.07007 149.26183 4294967295
897.74902 838.1618 144.90025 4294967295
913.8111 1245.019 141.91074 4294967295
903.93756 1267.4336 201.96313 4294967295
901.4057 1247.0076 181.62723 4294967295
890.06195 1218.3733 146.54646 4294967295
887.20349 1276.4043 198.01274 4294967295
908.25684 1190.8523 170.90007 4294967295
891.30322 1236.0253 171.74216 4294967295
890.71747 1220.7626 184.77316 4294967295
879.92242 1210.9867 182.19656 4294967295
907.58368 1188.662 151.15674 4294967295
907.87756 1194.2898 169.72209 4294967295
915.32202 1159.9091 176.46425 4294967295
887.60443 1190.9268 201.12276 4294967295
903.49579 1168.0923 169.61873 4294967295
913.0415 1189.0585 189.5645 4294967295
887.81873 1165.4371 172.80168 4294967295
868.63593 1184.275 157.07246 4294967295
909.19592 1130.6772 162.7592 4294967295
905.29956 1190.3315 206.69485 4294967295
900.30853 1125.7986 176.1767 4294967295
907.94098 1150.2555 173.66124 4294967295
887.6767 1096.0902 164.73024 4294967295
892.23224 1251.5706 232.88258 4294967295
898.5434 1244.3495 215.51947 4294967295
904.85602 1235.1333 205.6698 4294967295
905.39105 1230.6863 243.3347 4294967295
926.33569 1240.7841 214.66168 4294967295
902.90717 1228.8154 214.01584 4294967295
901.24091 1218.7627 209.07069 4294967295
908.14075 1219.7892 225.31995 4294967295
889.77051 1203.7828 203.62657 4294967295
910.86511 1212.8248 233.36565 4294967295
884.63861 1190.0382 224.88777 4294967295
909.61456 1302.7283 263.12692 4294967295
898.80286 1309.0242 247.89615 4294967295
898.4848 1288.6168 232.4464 4294967295
882.50195 1293.1047 228.90488 4294967295
893.06927 1259.4735 248.32742 4294967295
880.27136 1231.0302 270.68277 4294967295
910.46564 1284.8361 222.22836 4294967295
930.22198 1234.4811 227.5199 4294967295
898.18353 1253.7142 251.17891 4294967295
927.1062 1229.1794 259.86209 4294967295
887.74646 1229.7467 245.93826 4294967295
896.54932 1346.2596 270.55646 4294967295
902.07727 1310.5861 304.26321 4294967295
903.47754 1293.4152 287.35617 4294967295
916.51862 1304.3458 260.75354 4294967295
888.52155 1325.0383 283.75873 4294967295
911.82709 1340.3572 263.17764 4294967295
883.32416 1295.0668 271.9928 4294967295
924.21649 1301.9756 275.01181 4294967295
883.59674 1261.8993 262.73999 4294967295
921.50598 1294.291 311.83743 4294967295
925.30237 1254.2046 266.33221 4294967295
1115.7623 1232.1254 181.10477 4294967295
1088.902 1240.1782 169.97803 4294967295
1110.1196 1217.0077 159.58855 4294967295
1102.6967 1203.106 158.98904 4294967295
1123.9529 1227.5546 167.43198 4294967295
1130.3411 1226.8069 132.94559 4294967295
1117.7784 1205.5649 170.03848 4294967295
1094.8313 1255.3761 174.57214 4294967295
1104.8514 1244.2186 147.97713 4294967295
1099.1672 1259.7804 185.00832 4294967295
1086.3452 1237.2417 198.80409 4294967295
1123.6676 1259.9042 180.31235 4294967295
1105.8805 1257.5905 176.507 4294967295
1101.9426 1211.6902 159.95619 4294967295
1094.3148 1268.7217 167.36554 4294967295
1093.8837 1287.7604 166.73462 4294967295
1120.9268 1261.1537 157.77103 4294967295
1075.8812 1263.8433 188.34941 4294967295
1068.7211 1267.2111 145.94241 4294967295
1110.1943 1266.0198 169.87697 4294967295
1081.0795 1267.386 157.72383 4294967295
1037.4031 1207.1724 140.47453 4294967295
1054.7825 1179.8694 160.64682 4294967295
1048.0824 1214.4414 165.79956 4294967295
1044.9346 1231.7172 177.98636 4294967295
1039.8706 1193.255 167.21233 4294967295
1022.3865 1251.2772 175.47865 4294967295
1049.2395 1246.8256 185.25093 4294967295
1031.1537 1278.8746 175.78786 4294967295
1021.4033 1262.4728 156.58174 4294967295
1056.9884 1238.7396 177.39977 4294967295
1043.3634 1245.1798 160.77646 4294967295
984.58893 1167.0607 146.30215 4294967295
960.995 1159.4418 155.58359 4294967295
980.17029 1160.5017 191.93854 4294967295
973.24445 1185.9495 203.24597 4294967295
971.00739 1194.2438 153.59081 4294967295
965.38733 1213.9265 165.89369 4294967295
971.25 1216.2385 164.26039 4294967295
972.50836 1229.1698 151.22125 4294967295
961.55597 1238.1384 161.17728 4294967295
979.5249 1248.0784 151.92679 4294967295
952.00378 1248.0955 142.53471 4294967295
945.01147 1155.0913 144.02007 4294967295
938.48328 1143.3678 127.51772 4294967295
942.81012 1158.2223 158.70058 4294967295
954.36511 1166.1451 167.96704 4294967295
925.40228 1187.7004 184.90483 4294967295
920.86151 1193.6569 177.78749 4294967295
951.91724 1203.8815 166.40805 4294967295
943.37042 1199.0515 164.45215 4294967295
914.60486 1225.8698 148.36314 4294967295
886.8302 1230.8218 148.02263 4294967295
924.35577 1231.2529 140.36424 4294967295
1113.115 1233.0776 165.43089 4294967295
1117.2563 1233.7139 184.3425 4294967295
1104.6908 1267.3516 169.14404 4294967295
1096.2433 1229.5717 144.83463 4294967295
1117.7064 1280.7073 165.49342 4294967295
1094.2094 1260.9128 163.69266 4294967295
1093.6431 1262.8599 157.68436 4294967295
1071.2603 1260.4187 185.29236 4294967295
1088.6141 1246.1823 148.20558 4294967295
1098.9308 1268.2013 139.61275 4294967295
1038.8157 1198.8225 124.52218 4294967295
1059.427 1196.0956 123.22105 4294967295
1053.6364 1216.8047 132.13806 4294967295
1052.014 1209.3513 153.49467 4294967295
1058.2606 1213.0905 168.44759 4294967295
1053.6785 1236.8136 150.22804 4294967295
1065.016 1244.754 140.05798 4294967295
1014.1439 1211.6351 132.20303 4294967295
1020.9174 1266.0847 157.48006 4294967295
996.50568 1195.2974 149.45009 4294967295
993.5556 1173.4358 159.46109 4294967295
988.14368 1200.1188 165.23337 4294967295
974.95648 1182.1903 141.35384 4294967295
1018.376 1217.7394 188.26491 4294967295
958.28992 1210.0969 175.95271 4294967295
952.91327 1231.8289 155.08815 4294967295
966.60138 1235.0215 173.28758 4294967295
983.64056 1235.9763 161.13399 4294967295
952.51691 1143.9033 162.43456 4294967295
946.56403 1142.5676 138.24071 4294967295
914.52179 1149.172 149.27383 4294967295
908.61475 1166.8734 149.57518 4294967295
929.77136 1181.0126 155.38582 4294967295
924.95514 1191.9663 158.39906 4294967295
915.12225 1204.7654 135.008 4294967295
919.14001 1222.4954 134.49828 4294967295
941.95435 1232.9657 141.46747 4294967295
1630.2715 664.42615 56.51939 4294967295
1640.4999 657.17334 50.844162 4294967295
1657.9539 635.02747 88.055054 4294967295
1658.942 694.5755 61.536968 4294967295
1661.4823 660.6897 63.340355 4294967295
1655.1626 660.97772 71.902458 4294967295
1645.9729 677.711 68.029655 4294967295
1640.2546 704.46936 50.84206 4294967295
1648.799 650.8291 87.235054 4294967295
1679.5291 689.28491 46.300209 4294967295
1660.8401 689.3313 48.17709 4294967295
1668.6083 659.60272 54.250229 4294967295
1668.0186 660.7475 55.473976 4294967295
1672.7313 708.20062 38.054237 4294967295
1651.1943 683.98755 53.938438 4294967295
1668.2238 726.90271 32.605442 4294967295
1657.0015 695.5401 64.714783 4294967295
1635.0743 712.61908 65.693527 4294967295
1654.3579 703.7879 55.559216 4294967295
1660.1317 689.17657 28.610901 4294967295
1650.8506 704.98663 60.485382 4294967295
1586.0905 646.80957 78.190788 4294967295
1606.6836 666.60461 79.038033 4294967295
1588.9108 650.01685 55.625946 4294967295
1571.2367 641.79474 35.393124 4294967295
1589.3032 684.72406 47.16666 4294967295
1595.4607 699.11292 64.578171 4294967295
1568.4696 694.2514 37.221893 4294967295
1572.354 689.66949 64.60054 4294967295
1605.0061 682.25854 58.555138 4294967295
1599.6637 704.42487 38.364929 4294967295
1571.906 723.74048 68.234528 4294967295
1519.4116 644.40417 61.958817 4294967295
1532.1855 616.51074 50.225376 4294967295
1540.788 654.10297 19.349125 4294967295
1527.9448 660.20343 48.377972 4294967295
1539.9569 647.71686 62.661453 4294967295
1527.4381 664.32684 42.845123 4294967295
1539.4423 688.53363 63.101524 4294967295
1534.1041 678.60956 47.994015 4294967295
1505.9045 704.89679 47.37925 4294967295
1516.8397 701.11407 31.779352 4294967295
1519.5143 705.47589 33.346394 4294967295
1472.7449 605.30707 54.778488 4294967295
1482.9619 621.05908 20.421507 4294967295
1452.2313 609.74927 40.941994 4294967295
1457.0613 627.32593 38.401726 4294967295
1472.2156 660.85541 51.687305 4294967295
1485.1841 652.31818 25.872181 4294967295
1492.0383 681.93506 36.67672 4294967295
1479.8097 693.80157 50.456337 4294967295
1484.4901 691.69104 39.73418 4294967295
1483.0051 702.55646 52.45689 4294967295
1467.0988 695.72351 61.025906 4294967295
1393.3168 606.58563 34.350861 4294967295
1430.0259 598.87292 23.57058 4294967295
1412.1746 624.35071 51.837101 4294967295
1416.4741 620.19269 45.507847 4294967295
1437.4552 605.55505 22.577034 4294967295
1422.8032 628.5379 35.357971 4294967295
1436.797 654.57495 52.250977 4294967295
1427.6957 647.9483 65.280357 4294967295
1410.3406 697.09631 33.598537 4294967295
1420.9595 699.36646 14.568692 4294967295
1412.1619 716.26337 39.394089 4294967295
1377.025 600.71655 32.341331 4294967295
1333.3708 570.23346 78.121437 4294967295
1337.964 589.12207 50.266685 4294967295
1374.3837 619.07971 44.164051 4294967295
1349.9124 621.0152 38.86639 4294967295
1344.7623 669.52484 57.093613 4294967295
1348.4707 658.35492 45.533115 4294967295
1345.1527 650.8584 48.444187 4294967295
1347.0697 679.00958 44.952049 4294967295
1361.8772 698.52161 11.812528 4294967295
1331.98 708.13593 -2.7498231 4294967295
1273.771 581.08344 45.37508 4294967295
1301.9441 537.56641 10.771994 4294967295
1301.7559 593.4494 41.743111 4294967295
1288.3654 591.77155 45.733498 4294967295
1263.5092 632.09015 31.390671 4294967295
1280.7209 645.36401 57.276569 4294967295
1280.6787 661.54834 62.142143 4294967295
1291.4957 679.77051 35.000534 4294967295
1313.1315 679.53125 47.17226 4294967295
1304.6396 695.63599 60.124649 4294967295
1249.8707 719.84741 20.162081 4294967295
1228.001 577.98724 40.311707 4294967295
1241.3304 529.41357 15.179851 4294967295
1227.6144 580.64813 30.680149 4294967295
1221.5089 590.72345 33.352737 4294967295
1228.9185 595.42773 51.581371 4294967295
1258.8461 602.46936 15.835171 4294967295
1249.2677 625.2832 30.491045 4294967295
1223.8634 666.05597 29.982183 4294967295
1257.068 675.37561 43.391293 4294967295
1267.2537 714.54895 55.512005 4294967295
1236.0496 686.58691 59.456699 4294967295
1185.6718 532.02722 43.618904 4294967295
1157.1466 539.26349 38.439163 4294967295
1164.8719 567.47797 13.752807 4294967295
1136.4315 566.67188 13.931388 4294967295
1175.3302 618.55371 50.348892 4294967295
1138.6385 617.96289 28.989277 4294967295
1166.4355 650.06891 54.389957 4294967295
1164.652 624.46295 14.964088 4294967295
1155.1014 660.16101 25.115408 4294967295
1164.3079 712.21936 31.043634 4294967295
1173.9777 728.08453 31.225035 4294967295
1115.8184 500.73337 29.230825 4294967295
1118.9609 511.75842 33.930565 4294967295
1121.0247 525.41827 37.181442 4294967295
1089.314 570.33862 29.596306 4294967295
1117.1255 567.59668 49.091118 4294967295
1135.2743 600.90643 47.52039 4294967295
1097.6949 622.67413 33.368645 4294967295
1122.6025 660.4079 32.930321 4294967295
1090.4282 653.97375 30.081673 4294967295
1106.175 700.8418 32.816242 4294967295
1094.9783 722.95599 11.189785 4294967295
1043.8519 515.04175 15.571177 4294967295
1056.4636 492.39304 16.711765 4294967295
1051.4243 525.75012 58.716755 4294967295
1061.1497 539.63989 20.6488 4294967295
1060.4558 563.54596 42.739574 4294967295
1039.2812 576.39612 52.076599 4294967295
1064.006 642.07312 30.881119 4294967295
1068.9896 635.70624 43.197685 4294967295
1052.2579 653.18561 14.291562 4294967295
1063.4319 675.96381 2.9499354 4294967295
1082.4106 751.78461 5.5572166 4294967295
995.29395 484.77466 31.758541 4294967295
992.71643 452.45789 17.511322 4294967295
1013.6669 509.74942 30.410147 4294967295
989.0069 548.93738 42.176758 4294967295
984.73547 552.69519 39.314869 4294967295
1012.8481 586.59106 60.753624 4294967295
996.60278 597.00671 30.412699 4294967295
981.54651 623.69342 3.8410907 4294967295
979.08997 666.15161 21.838196 4294967295
1006.377 687.20953 2.5481784 4294967295
988.86786 735.05176 10.735574 4294967295
1682.6733 676.34332 47.63203 4294967295
1632.5175 668.79944 60.322102 4294967295
1657.6979 703.14685 42.853386 4294967295
1673.4904 692.78278 55.65873 4294967295
1633.9603 686.94855 75.555122 4294967295
1663.3496 698.53687 40.944725 4294967295
1640.8137 708.00189 68.426125 4294967295
1628.0746 704.95782 47.038776 4294967295
1662.2141 713.17859 64.644081 4294967295
1650.7799 700.3371 46.153149 4294967295
1596.7275 640.92578 28.946577 4294967295
1617.432 654.50598 44.096691 4294967295
1583.723 661.10144 56.735535 4294967295
1561.1086 670.40021 54.06411 4294967295
1595.319 674.1889 70.99585 4294967295
1611.9316 674.27698 40.042194 4294967295
1597.5884 682.97949 38.859486 4294967295
1580.0852 678.56622 60.316502 4294967295
1601.9409 666.87592 67.410088 4294967295
1600.9562 717.41235 67.325729 4294967295
1508.1344 617.30707 26.009018 4294967295
1531.3965 640.1272 51.972923 4294967295
1537.5568 639.40607 35.767151 4294967295
1528.4989 671.35046 44.3494 4294967295
1544.8661 646.70789 29.741808 4294967295
1560.1321 681.89807 40.748272 4294967295
1523.3052 705.81775 55.3466 4294967295
1516.5881 709.92804 60.097923 4294967295
1551.7006 725.63196 37.161472 4294967295
1502.3652 692.07147 21.416681 4294967295
1460.9912 633.99884 36.791466 4294967295
1483.876 625.90021 41.887005 4294967295
1485.322 630.99719 5.8340459 4294967295
1452.6643 646.4173 -13.299551 4294967295
1467.0499 666.63318 19.28093 4294967295
1464.9053 681.54175 22.189219 4294967295
1473.697 702.85779 46.315884 4294967295
1460.6672 708.27893 46.461414 4294967295
1459.9375 711.09534 40.024757 4294967295
1388.6687 611.6543 34.947739 4294967295
1399.5261 615.10132 36.170212 4294967295
1408.9884 633.43005 40.771538 4294967295
1399.028 632.33624 40.984825 4294967295
1404.196 644.80884 41.180714 4294967295
1421.3604 671.31891 11.861972 4294967295
1424.6572 678.1507 31.802816 4294967295
1400.2621 723.85297 44.770008 4294967295
1430.924 693.41254 38.842659 4294967295
1432.8497 720.51147 30.435425 4294967295
1347.2373 582.99835 -8.9999676 4294967295
1356.4192 619.09283 14.785284 4294967295
1341.1571 621.70105 46.032093 4294967295
1351.4722 647.54517 24.475582 4294967295
1361.6711 649.43292 29.585596 4294967295
1348.9871 650.87677 19.305975 4294967295
1340.9935 692.59033 21.375414 4294967295
1364.9585 664.9754 17.76087 4294967295
1349.1125 688.58905 38.444763 4294967295
1366.1934 708.96509 32.070587 4294967295
1301.1814 584.33899 21.900118 4294967295
1288.901 575.90161 30.203884 4294967295
1281.6089 596.98334 23.619745 4294967295
1297.653 627.56012 40.615776 4294967295
1307.2701 637.32434 27.479242 4294967295
1295.0592 643.99457 18.272476 4294967295
1307.4744 652.57123 30.575636 4294967295
1296.0438 669.82983 42.672691 4294967295
1304.3203 708.92371 24.640406 4294967295
1295.6163 724.30383 38.977154 4294967295
1230.349 542.2417 18.568897 4294967295
1241.1327 579.74597 26.560932 4294967295
1245.7723 599.18835 5.3688688 4294967295
1240.3243 621.90588 5.3886046 4294967295
1233.0397 639.22156 -19.106581 4294967295
1224.254 656.69086 30.830614 4294967295
1220.5004 676.06366 -4.1227055 4294967295
1237.2922 664.84222 -3.4840984 4294967295
1206.2991 681.58221 26.461269 4294967295
1238.9423 710.69666 47.222683 4294967295
1153.5271 546.93488 -14.234168 4294967295
1156.7195 588.26794 28.692303 4294967295
1147.1107 567.20782 4.266448 4294967295
1181.7786 580.40424 6.6892138 4294967295
1168.3966 624.83917 15.437811 4294967295
1205.1759 614.41852 3.722225 4294967295
1185.299 658.06299 40.150288 4294967295
1210.8516 673.66772 13.569125 4294967295
1174.6086 695.41364 -3.5707765 4294967295
1164.1022 713.57239 10.53412 4294967295
1102.6698 534.88342 11.807262 4294967295
1123.1276 546.34393 -33.898354 4294967295
1091.0128 550.56482 20.427557 4294967295
1120.5021 578.07166 12.507712 4294967295
1116.1208 580.73254 -4.433485 4294967295
1113.447 629.42548 7.1521983 4294967295
1105.8864 684.0434 6.7199564 4294967295
1085.5111 678.90228 10.281592 4294967295
1114.2937 685.61139 33.922951 4294967295
1120.4907 721.01794 15.42314 4294967295
1056.2258 520.71533 33.265244 4294967295
1039.073 527.20087 5.9175959 4294967295
1048.2103 540.81512 20.396255 4294967295
1048.4957 566.54944 15.487885 4294967295
1066.0974 574.72583 21.098022 4294967295
1008.4001 601.20575 9.7122889 4294967295
1046.96 644.0473 8.3200741 4294967295
1078.7468 666.05548 -1.5450954 4294967295
1056.8898 663.20709 29.809958 4294967295
1074.7606 740.44116 -16.871536 4294967295
977.79901 468.15042 5.9720826 4294967295
985.24683 524.45776 17.078995 4294967295
1004.577 506.9809 -9.846508 4294967295
975.76862 546.05188 4.0530167 4294967295
976.78522 556.32068 16.740005 4294967295
996.45038 597.9859 9.2803469 4294967295
1021.7972 624.90143 -0.35174152 4294967295
1007.2827 671.10449 11.653854 4294967295
990.76569 676.46985 -9.6092472 4294967295
853.84888 912.49481 -2.4743571 4294967295
885.09656 937.41351 -7.9208784 4294967295
886.28595 1036.9225 31.389915 4294967295
870.71484 1080.901 57.227188 4294967295
921.30695 1120.334 91.171753 4294967295
878.62646 1201.9026 124.98915 4294967295
871.52399 1247.4077 110.90742 4294967295
840.07159 914.41901 -24.570967 4294967295
840.55902 944.4469 18.851635 4294967295
863.84534 1014.9041 11.919023 4294967295
868.76782 1088.726 9.6499233 4294967295
880.21594 1151.7914 99.620956 4294967295
872.88519 1193.311 88.958405 4294967295
886.26801 1212.3319 144.74654 4294967295
828.5929 869.87421 0.12239369 4294967295
804.24731 963.89563 44.777912 4294967295
825.72687 981.58063 43.304707 4294967295
856.71918 1087.0942 105.62477 4294967295
861.63593 1135.0182 105.15045 4294967295
896.62012 1196.3362 100.27737 4294967295
891.60327 1223.1168 152.26547 4294967295
805.84271 896.00842 37.128292 4294967295
803.28503 961.17731 52.467686 4294967295
831.0224 1004.222 46.180737 4294967295
839.81531 1067.9703 58.411633 4294967295
850.3606 1105.8014 96.525787 4294967295
870.98004 1193.2123 106.48792 4294967295
883.84344 1236.298 127.13148 4294967295
799.0708 861.59454 68.864845 4294967295
819.73853 948.10687 108.3335 4294967295
830.67493 1022.6867 101.24992 4294967295
832.66241 1098.4897 51.49258 4294967295
844.57922 1137.6102 118.93211 4294967295
897.54858 1172.5905 149.80478 4294967295
882.63672 1206.548 123.47992 4294967295
794.04425 903.05011 87.035179 4294967295
832.53735 948.73175 106.1918 4294967295
813.92877 1040.2919 98.381119 4294967295
831.8985 1088.3547 134.50262 4294967295
843.34686 1125.0422 93.881042 4294967295
848.30139 1197.5671 119.07555 4294967295
899.37213 1225.2126 150.91574 4294967295
838.12207 887.29785 104.5778 4294967295
823.15894 961.04352 130.10896 4294967295
867.54462 1015.1434 140.78778 4294967295
847.61206 1073.9615 142.71072 4294967295
870.79529 1171.8199 152.06554 4294967295
868.17041 1189.4424 161.37454 4294967295
862.26605 1253.6471 167.15387 4294967295
834.13501 894.85266 159.60352 4294967295
875.45544 966.88959 169.16621 4294967295
857.09003 1024.389 144.33043 4294967295
870.23364 1069.1882 150.20125 4294967295
861.46552 1137.0734 144.19228 4294967295
874.17487 1224.5189 149.57919 4294967295
902.61365 1252.0818 155.3147 4294967295
878.2226 886.30414 165.6646 4294967295
881.27106 924.83002 151.56818 4294967295
861.1214 1015.3557 174.71407 4294967295
885.1358 1071.0377 146.83017 4294967295
874.38239 1128.9924 162.54211 4294967295
847.46259 1199.2863 140.52826 4294967295
892.75513 1242.5485 134.98055 4294967295
882.28064 36.004246 22.654413 4294967295
895.00262 111.39834 -24.665203 4294967295
878.75757 188.12112 -5.7438512 4294967295
865.48846 220.17615 -2.4495864 4294967295
865.31281 122.19013 -6.5859942 4294967295
884.36676 174.68152 -8.4916019 4294967295
850.24396 246.37009 5.7308688 4294967295
860.27588 112.08533 15.132277 4294967295
832.92133 163.12686 15.431407 4294967295
838.6413 250.94025 21.533222 4294967295
835.62421 128.87 36.337982 4294967295
823.36768 197.11002 24.088078 4294967295
810.68469 202.94696 9.1376028 4294967295
828.7868 99.118576 82.361542 4294967295
790.19244 187.24104 62.574135 4294967295
811.3681 243.79485 46.295807 4294967295
845.67114 126.91357 57.507996 4294967295
805.23492 183.1107 126.29092 4294967295
814.12494 216.03517 122.31297 4294967295
845.19592 123.6331 82.325226 4294967295
844.33716 168.93852 127.30265 4294967295
825.22375 244.35886 122.02672 4294967295
878.51318 89.474579 96.133408 4294967295
832.00867 186.24213 125.06004 4294967295
834.23511 233.12802 161.81065 4294967295
875.14069 136.55321 112.73945 4294967295
891.97113 176.39751 150.36339 4294967295
868.42163 243.57639 151.85162 4294967295
887.64233 414.08215 12.387492 4294967295
881.69635 483.15155 -38.419056 4294967295
846.43604 548.43066 -14.1966 4294967295
869.16089 574.97321 -12.090634 4294967295
859.27258 654.58209 -20.191944 4294967295
866.14825 717.00476 -21.987694 4294967295
873.03918 405.77002 -8.3318682 4294967295
832.01233 474.23856 2.5234513 4294967295
823.56506 525.87347 -22.192146 4294967295
849.44562 638.79175 -3.8244896 4294967295
851.78033 647.2865 -1.1249529 4294967295
867.65588 733.28235 14.330841 4294967295
813.16571 419.24615 44.032581 4294967295
796.65234 484.40967 16.93508 4294967295
832.05457 542.27783 4.2202163 4294967295
798.48505 606.00348 34.540791 4294967295
804.0863 672.37891 9.3969212 4294967295
828.50861 706.44183 18.880043 4294967295
802.50757 432.36194 21.214937 4294967295
821.20807 485.12857 42.317139 4294967295
834.45496 504.94754 37.632458 4294967295
825.367 601.56738 53.82515 4294967295
814.1601 629.61163 45.115013 4294967295
814.38495 735.55817 15.607783 4294967295
818.16455 423.01813 66.751724 4294967295
822.71124 466.15564 73.06813 4294967295
799.09222 538.47589 86.359985 4294967295
799.78979 617.55206 72.858047 4294967295
780.87634 674.37213 69.216301 4294967295
830.65094 718.02319 74.226402 4294967295
813.00256 396.8541 65.608643 4294967295
803.96021 462.3317 62.147778 4294967295
839.0119 540.82733 114.39835 4294967295
813.18683 602.00781 83.097755 4294967295
814.22144 662.86871 104.79896 4294967295
794.73883 705.54462 111.31698 4294967295
829.44226 380.52145 121.92555 4294967295
809.75952 470.91342 108.86879 4294967295
844.04596 532.11279 146.19197 4294967295
834.70251 623.68494 130.01817 4294967295
822.49615 637.38916 126.50338 4294967295
809.56879 713.32526 129.83217 4294967295
871.83795 398.34521 165.99994 4294967295
860.43158 496.34842 157.95456 4294967295
852.58093 516.42963 151.1263 4294967295
842.39575 554.14673 118.802 4294967295
875.12427 649.68231 118.27441 4294967295
862.48962 719.7616 143.04269 4294967295
838.83466 405.98227 165.48105 4294967295
847.28656 473.31415 154.3452 4294967295
878.104 542.29572 171.96643 4294967295
872.75159 597.91003 153.59035 4294967295
868.71594 647.98462 148.06932 4294967295
877.74475 701.09467 148.90964 4294967295
884.84436 307.47305 -19.07037 4294967295
877.63232 343.7363 -20.947735 4294967295
854.39996 269.04614 4.4599171 4294967295
840.42719 343.21524 2.2852378 4294967295
844.68781 305.5238 41.841812 4294967295
817.67078 367.88174 25.751265 4294967295
834.17987 288.71854 59.330051 4294967295
799.95605 306.94788 21.94384 4294967295
803.92419 287.99393 80.951973 4294967295
818.56525 374.6329 76.087036 4294967295
805.55267 290.83359 114.25961 4294967295
811.23779 359.62503 101.22174 4294967295
824.66193 306.2681 107.85756 4294967295
818.22168 351.44211 106.58685 4294967295
835.44916 296.74121 133.2421 4294967295
841.82867 342.00742 156.17755 4294967295
844.00684 300.12643 167.37219 4294967295
877.46826 357.96829 135.31134 4294967295
844.01508 770.63495 -25.441889 4294967295
845.0174 840.18011 10.536642 4294967295
860.75824 768.98334 -15.759343 4294967295
857.13086 837.2876 -6.597064 4294967295
826.38098 751.25977 22.379551 4294967295
830.87183 830.70361 26.437691 4294967295
844.92456 785.74927 31.469439 4294967295
833.90234 842.61859 31.080843 4294967295
801.96045 765.03979 60.740051 4294967295
799.76501 850.28925 81.807518 4294967295
801.17517 786.8186 101.82973 4294967295
846.66589 854.37506 105.81196 4294967295
827.73956 790.56152 119.12655 4294967295
850.49017 834.82526 117.36275 4294967295
824.96912 760.14899 139.88289 4294967295
854.01801 830.65753 138.72081 4294967295
898.93817 781.40057 166.51338 4294967295
856.02936 852.11871 164.67793 4294967295
913.64984 1204.3881 139.44356 4294967295
890.12994 1232.269 188.58185 4294967295
910.96576 1255.4369 192.21761 4294967295
888.86108 1229.731 147.07932 4294967295
893.02539 1235.7754 173.66818 4294967295
869.35278 1231.9883 175.32634 4294967295
896.55579 1193.7772 142.47736 4294967295
905.49573 1199.6815 202.55637 4294967295
892.09668 1182.5991 143.80157 4294967295
899.3808 1226.9677 191.70613 4294967295
871.69324 1189.5143 156.11813 4294967295
887.11969 1199.0475 202.49928 4294967295
894.44305 1144.7753 159.32695 4294967295
884.75366 1204.1515 163.63893 4294967295
893.99463 1142.929 126.42979 4294967295
874.98969 1190.5698 204.18678 4294967295
896.03674 1137.0176 168.18532 4294967295
850.26086 1172.5885 197.34929 4294967295
854.91351 1120.9731 163.54985 4294967295
924.44141 1189.8689 222.40718 4294967295
912.62109 1118.2091 125.02843 4294967295
896.34686 1172.8691 181.1783 4294967295
900.59418 1258.7251 227.50867 4294967295
919.08386 1258.4673 233.10219 4294967295
893.87689 1281.9635 205.31841 4294967295
900.37817 1256.0438 235.73192 4294967295
901.62604 1239.9775 215.47107 4294967295
876.76196 1241.8516 229.09627 4294967295
890.78821 1232.9171 208.15723 4294967295
882.04309 1230.3469 224.25114 4294967295
926.07587 1206.8887 228.49155 4294967295
882.61121 1218.8732 235.47757 4294967295
908.65094 1187.7177 226.61873 4294967295
897.50812 1292.316 262.38422 4294967295
903.07867 1291.2069 241.72241 4294967295
899.25775 1308.4824 238.63152 4294967295
896.61737 1286.9883 250.20874 4294967295
909.15125 1264.1313 250.2536 4294967295
893.89001 1243.5996 244.8936 4294967295
908.07056 1238.2726 251.78299 4294967295
887.03229 1272.0588 239.39876 4294967295
893.87646 1228.0376 260.83011 4294967295
897.65875 1255.0652 271.38779 4294967295
892.9613 1242.7999 232.36694 4294967295
893.37964 1310.8213 271.95276 4294967295
896.69202 1324.3788 266.96008 4294967295
873.92133 1340.7966 280.99399 4294967295
886.44989 1299.9857 262.65118 4294967295
910.62598 1298.8364 279.89581 4294967295
888.85693 1295.0645 291.483 4294967295
908.97247 1289.6912 299.77158 4294967295
903.42865 1300.9481 265.76282 4294967295
880.78168 1264.6254 285.78812 4294967295
878.18091 1267.5392 263.26825 4294967295
915.8808 1256.1827 291.85641 4294967295
691.08771 1219.1586 165.75945 4294967295
710.65497 1215.7384 179.98732 4294967295
666.98761 1212.1438 156.86552 4294967295
709.17468 1211.5984 146.90677 4294967295
672.74957 1234.2942 150.95094 4294967295
722.974 1208.5177 133.90579 4294967295
673.65723 1237.5356 177.9828 4294967295
715.79877 1257.0374 176.10143 4294967295
681.60583 1240.7278 180.53354 4294967295
682.4881 1231.6807 213.9599 4294967295
698.8653 1243.3022 166.29916 4294967295
711.8078 1274.3787 163.79161 4294967295
702.6521 1271.5983 161.97954 4294967295
693.62903 1286.408 154.28992 4294967295
700.2525 1268.2202 159.39156 4294967295
704.15265 1270.2739 162.54727 4294967295
699.5639 1287.5131 179.04207 4294967295
709.74432 1280.0197 187.1602 4294967295
674.09558 1270.6224 160.15088 4294967295
712.01459 1282.9536 171.20839 4294967295
688.87976 1281.991 177.5497 4294967295
757.59662 1182.0186 155.78369 4294967295
757.20746 1191.4238 130.44118 4294967295
753.16315 1189.7245 159.02802 4294967295
752.45459 1221.2189 177.17851 4294967295
758.02026 1236.4995 143.03906 4294967295
760.70636 1189.0507 158.22743 4294967295
759.00952 1236.2218 138.77028 4294967295
756.01208 1230.4288 159.38992 4294967295
753.02277 1240.3043 164.00734 4294967295
758.91876 1248.4696 176.11891 4294967295
764.14795 1265.0768 166.06602 4294967295
802.11243 1169.4818 180.90121 4294967295
786.7865 1158.8702 152.92294 4294967295
806.53815 1187.5831 172.51216 4294967295
795.89038 1222.882 155.13303 4294967295
829.33008 1174.355 179.35875 4294967295
795.04126 1206.8113 159.38916 4294967295
795.82465 1221.7654 131.95111 4294967295
837.72888 1225.2117 138.41713 4294967295
805.41406 1226.6061 154.39882 4294967295
801.20245 1241.0836 174.64716 4294967295
800.51141 1283.7075 148.661 4294967295
877.03674 1124.5106 141.03699 4294967295
840.98315 1144.4713 172.96439 4294967295
827.83344 1176.8013 179.5136 4294967295
870.17151 1187.2601 126.63226 4294967295
874.18567 1185.6364 127.37159 4294967295
817.98853 1181.1759 157.8446 4294967295
871.30817 1182.9618 166.98515 4294967295
872.51611 1201.0704 168.0726 4294967295
880.48254 1223.8065 132.28372 4294967295
878.76434 1261.7653 165.29308 4294967295
876.19415 1246.6134 162.037 4294967295
681.5719 1207.8868 155.81131 4294967295
700.27948 1212.4707 170.26585 4294967295
680.15399 1237.2257 174.99672 4294967295
667.35803 1221.6979 186.54448 4294967295
680.50073 1243.2539 164.63075 4294967295
689.37195 1251.2827 158.58975 4294967295
703.99072 1250.9254 185.99619 4294967295
692.78687 1269.7305 163.86946 4294967295
713.00653 1263.9073 167.39513 4294967295
714.89545 1253.2997 163.87941 4294967295
738.56128 1200.7784 166.41696 4294967295
778.05292 1221.1797 170.39735 4294967295
771.16583 1217.7205 143.30627 4294967295
757.42761 1231.5009 151.95 4294967295
736.93451 1208.3368 184.53792 4294967295
770.73492 1237.7101 169.16264 4294967295
758.4538 1228.6508 147.17314 4294967295
761.6275 1232.9825 164.01369 4294967295
765.47723 1284.2589 153.64008 4294967295
786.08374 1138.7352 128.18391 4294967295
835.34595 1186.6512 152.67538 4294967295
810.73151 1202.9497 145.92215 4294967295
809.06744 1219.7518 174.06181 4294967295
820.00952 1201.3243 144.55225 4294967295
806.82184 1207.0118 148.37383 4294967295
788.73126 1235.6187 154.36748 4294967295
825.27826 1210.4944 158.1546 4294967295
815.24579 1250.1296 153.64143 4294967295
845.08588 1168.2079 155.70453 4294967295
863.3172 1159.6768 110.16254 4294967295
847.89563 1139.7899 152.51776 4294967295
857.1817 1183.6873 127.80326 4294967295
870.34509 1179.335 152.65816 4294967295
852.57697 1168.3481 149.14734 4294967295
870.0647 1208.8634 125.00864 4294967295
845.86261 1219.3512 129.20424 4294967295
875.23828 1249.36 161.95018 4294967295
152.87094 660.26569 52.291512 4294967295
148.07001 620.93481 56.402252 4294967295
125.46626 651.30823 87.389656 4294967295
109.7114 684.34949 64.811066 4294967295
130.2798 674.22009 82.393234 4294967295
149.59708 664.20093 88.056236 4294967295
151.69724 677.06891 69.913048 4294967295
164.40428 688.98749 42.856586 4294967295
169.58881 664.07751 74.247139 4294967295
117.91053 673.742 66.318497 4294967295
106.99394 697.06213 65.217621 4294967295
116.54212 708.60803 68.069794 4294967295
129.7256 657.91046 61.034698 4294967295
123.46107 696.09656 57.345226 4294967295
138.83295 673.97321 65.018456 4294967295
131.70897 684.8114 59.329372 4294967295
144.69472 710.57745 71.032249 4294967295
165.61694 725.06305 34.029327 4294967295
135.20654 664.23883 48.961334 4294967295
146.6712 710.72772 53.633999 4294967295
132.9202 753.25989 61.590801 4294967295
197.58368 641.07581 48.03664 4294967295
210.58879 635.56964 40.784801 4294967295
181.22934 633.65564 47.577309 4294967295
205.1053 639.92725 37.608532 4294967295
204.114 652.51617 48.929726 4294967295
196.41312 664.44098 58.582134 4294967295
178.09155 702.56824 75.804916 4294967295
193.62218 692.51318 61.743324 4294967295
190.95563 684.71594 43.222836 4294967295
181.28761 718.97516 59.680088 4294967295
213.24115 715.54425 20.391138 4294967295
248.94351 614.41888 73.143402 4294967295
266.29391 622.60345 37.982239 4294967295
277.32709 647.91522 37.918098 4294967295
253.29877 659.91547 58.46624 4294967295
254.50175 672.84149 69.893318 4294967295
270.39224 689.47644 44.08395 4294967295
273.93445 658.72235 47.068142 4294967295
260.87372 682.11353 73.977814 4294967295
265.57663 700.44995 43.148968 4294967295
261.5827 702.76031 36.284115 4294967295
262.43134 700.68329 47.200912 4294967295
305.62637 649.10736 54.17728 4294967295
323.82059 599.20959 32.752071 4294967295
332.79926 633.79645 51.755501 4294967295
324.40872 639.04034 57.674885 4294967295
325.95941 665.25232 62.854748 4294967295
311.35333 629.30396 42.194084 4294967295
287.10873 644.43573 62.402374 4294967295
338.51221 661.02515 57.288742 4294967295
323.43661 684.41333 50.404114 4294967295
331.11078 717.12878 29.046776 4294967295
322.90811 731.34009 60.340466 4294967295
406.66199 579.1402 39.691929 4294967295
402.69077 616.07324 36.932396 4294967295
366.85873 637.68237 44.911991 4294967295
384.07602 655.90271 47.686802 4294967295
387.9621 630.09528 51.165089 4294967295
384.63852 669.85266 60.289234 4294967295
404.30569 649.91205 33.081009 4294967295
397.20023 674.45898 49.792503 4294967295
397.1571 696.03125 9.943388 4294967295
373.93906 681.26929 39.824287 4294967295
389.06937 739.76996 25.022909 4294967295
463.46875 568.49866 44.044815 4294967295
430.61761 592.43494 68.410736 4294967295
447.42966 593.08844 43.32122 4294967295
442.7215 642.05072 59.154778 4294967295
438.67087 646.43469 90.907722 4294967295
468.62845 644.16516 44.46402 4294967295
435.13559 660.39697 35.737591 4294967295
432.72128 687.55237 47.718544 4294967295
443.50986 694.40503 57.198883 4294967295
438.34982 693.61865 48.672974 4294967295
450.6785 729.69641 23.705206 4294967295
497.05759 564.24963 30.924988 4294967295
511.60278 599.78461 34.003502 4294967295
519.16718 577.36847 49.260334 4294967295
503.86926 571.81439 36.62146 4294967295
505.18814 618.68872 45.513161 4294967295
532.82562 651.31818 29.282099 4294967295
509.41635 627.6806 48.176483 4294967295
500.83734 682.36774 45.570145 4294967295
523.74896 683.39911 15.001659 4294967295
495.11261 692.5166 10.528322 4294967295
492.01523 710.89374 24.805523 4294967295
588.81769 520.67798 34.944115 4294967295
557.27545 560.52014 28.77973 4294967295
552.16638 571.09265 20.041193 4294967295
549.21136 555.45459 44.891602 4294967295
580.49445 614.8205 56.777023 4294967295
575.92572 654.97705 33.226891 4294967295
550.82892 637.73981 38.297932 4294967295
573.633 657.36871 51.291866 4294967295
563.60083 674.22223 49.29324 4294967295
572.92731 679.03101 47.024136 4294967295
563.9563 685.34747 22.421824 4294967295
614.30115 531.4043 51.371277 4294967295
569.84631 529.81854 46.790264 4294967295
634.08722 551.46643 52.908768 4294967295
609.65332 605.87366 17.786236 4294967295
619.70667 586.33453 30.529984 4294967295
633.54773 625.36359 15.085629 4294967295
636.03339 623.17566 41.840794 4294967295
601.00122 660.57538 38.096848 4294967295
641.12482 692.78326 32.899075 4294967295
642.9978 685.3382 17.675953 4294967295
637.08948 718.01703 26.225773 4294967295
682.76642 505.88278 21.30139 4294967295
689.9245 505.63425 58.074158 4294967295
678.1936 533.09344 23.463333 4294967295
697.80402 554.80707 70.62709 4294967295
700.82318 582.90515 67.649902 4294967295
687.91931 635.45862 60.04924 4294967295
715.27643 658.78632 53.960602 4294967295
695.65784 646.14044 43.528992 4294967295
658.09875 656.76825 39.717377 4294967295
694.72644 708.35669 28.384163 4294967295
673.02679 711.30658 21.620485 4294967295
763.10211 480.59369 43.119957 4294967295
740.06207 495.46432 22.524576 4294967295
745.11829 541.94299 36.842003 4294967295
741.8595 550.26178 59.057945 4294967295
763.86389 565.69788 38.546825 4294967295
