# .PCD v0.7 - Point Cloud Data file format
VERSION 0.7
FIELDS x y z rgba
SIZE 4 4 4 4
TYPE F F F U
COUNT 1 1 1 1
WIDTH 1247
HEIGHT 1
VIEWPOINT 0 0 0 1 0 0 0
POINTS 1247
DATA ascii
896.99402 48.760101 20.1385 4294967295
896.99402 55.4902 17.075701 4294967295
896.99402 42.847698 24.579 4294967295
896.99402 38.030499 30.188801 4294967295
896.99402 34.534801 36.704498 4294967295
896.99402 32.524601 43.820301 4294967295
887.39502 48.760101 21.6588 4294967295
886.448 55.4902 18.746 4294967295
888.76703 42.847698 25.882 4294967295
890.5 38.030499 31.2173 4294967295
892.51398 34.534801 37.414101 4294967295
894.71301 32.524601 44.181599 4294967295
878.73499 48.760101 26.0711 4294967295
876.935 55.4902 23.593201 4294967295
881.34497 42.847698 29.6635 4294967295
884.64203 38.030499 34.202 4294967295
888.47198 34.534801 39.473301 4294967295
892.65503 32.524601 45.230099 4294967295
871.86298 48.760101 32.943298 4294967295
869.38501 55.4902 31.143101 4294967295
875.45502 42.847698 35.553398 4294967295
879.99402 38.030499 38.8508 4294967295
885.26501 34.534801 42.680599 4294967295
891.02197 32.524601 46.863201 4294967295
867.45099 48.760101 41.602901 4294967295
864.53802 55.4902 40.656399 4294967295
871.67401 42.847698 42.975101 4294967295
877.00897 38.030499 44.708599 4294967295
883.20599 34.534801 46.722099 4294967295
889.97302 32.524601 48.920898 4294967295
865.92999 48.760101 51.202 4294967295
862.867 55.4902 51.202 4294967295
870.37097 42.847698 51.202 4294967295
875.97998 38.030499 51.202 4294967295
882.49597 34.534801 51.202 4294967295
889.612 32.524601 51.202 4294967295
867.45099 48.760101 60.801201 4294967295
864.53802 55.4902 61.747601 4294967295
871.67401 42.847698 59.429001 4294967295
877.00897 38.030499 57.695499 4294967295
883.20599 34.534801 55.681999 4294967295
889.97302 32.524601 53.483101 4294967295
871.86298 48.760101 69.460701 4294967295
869.38501 55.4902 71.261002 4294967295
875.45502 42.847698 66.850601 4294967295
879.99402 38.030499 63.553299 4294967295
885.26501 34.534801 59.7234 4294967295
891.02197 32.524601 55.540901 4294967295
878.73499 48.760101 76.333 4294967295
876.935 55.4902 78.810799 4294967295
881.34497 42.847698 72.740501 4294967295
884.64203 38.030499 68.202103 4294967295
888.47198 34.534801 62.930698 4294967295
892.65503 32.524601 57.174 4294967295
887.39502 48.760101 80.745201 4294967295
886.448 55.4902 83.658096 4294967295
888.76703 42.847698 76.522003 4294967295
890.5 38.030499 71.186798 4294967295
892.51398 34.534801 64.989899 4294967295
894.71301 32.524601 58.2225 4294967295
896.99402 955.48999 2.7644999 4294967295
921.01001 955.48999 6.5682602 4294967295
923.35797 895.48999 -8.2572002 4294967295
896.99402 895.48999 -12.4329 4294967295
896.99402 1015.49 16.098499 4294967295
918.94897 1015.49 19.575899 4294967295
896.99402 1075.49 35.510399 4294967295
915.95001 1075.49 38.512798 4294967295
896.99402 1135.49 84.378098 4294967295
908.40002 1135.49 86.1847 4294967295
896.99402 1195.49 108.921 4294967295
904.60699 1195.49 110.127 4294967295
896.99402 1237.5 126.461 4294967295
901.896 1237.49 127.245 4294967295
942.67499 955.48999 17.6071 4294967295
947.14099 895.48999 3.8610001 4294967295
938.75598 1015.49 29.667801 4294967295
933.05103 1075.49 47.226101 4294967295
918.68903 1135.49 91.427299 4294967295
911.47601 1195.49 113.627 4294967295
906.31897 1237.49 129.498 4294967295
959.86798 955.48999 34.800701 4294967295
966.01599 895.48999 22.7356 4294967295
954.474 1015.49 45.386398 4294967295
946.62201 1075.49 60.797401 4294967295
926.85498 1135.49 99.593102 4294967295
916.927 1195.49 119.078 4294967295
909.82898 1237.49 133.008 4294967295
970.90698 955.48999 56.465698 4294967295
978.13397 895.48999 46.518902 4294967295
964.56598 1015.49 65.192902 4294967295
955.33502 1075.49 77.898201 4294967295
932.09698 1135.49 109.882 4294967295
920.42603 1195.49 125.946 4294967295
912.08197 1237.49 137.431 4294967295
974.711 955.48999 80.481598 4294967295
982.30902 895.48999 72.883003 4294967295
968.04401 1015.49 87.148598 4294967295
958.33801 1075.49 96.854599 4294967295
933.90399 1135.49 121.288 4294967295
921.63202 1195.49 133.56 4294967295
912.85901 1237.49 142.334 4294967295
970.90698 955.48999 104.498 4294967295
978.13397 895.48999 99.247002 4294967295
964.56598 1015.49 109.104 4294967295
955.33502 1075.49 115.811 4294967295
932.09698 1135.49 132.694 4294967295
920.42603 1195.49 141.174 4294967295
912.08197 1237.49 147.23599 4294967295
959.86798 955.48999 126.163 4294967295
966.01599 895.48999 123.03 4294967295
954.474 1015.49 128.911 4294967295
946.62201 1075.49 132.912 4294967295
926.85498 1135.49 142.98399 4294967295
916.927 1195.49 148.04201 4294967295
909.82898 1237.49 151.659 4294967295
942.67499 955.48999 143.356 4294967295
947.14099 895.48999 141.905 4294967295
938.75598 1015.49 144.629 4294967295
933.05103 1075.49 146.483 4294967295
918.68903 1135.49 151.149 4294967295
911.47601 1195.49 153.493 4294967295
906.31897 1237.49 155.16901 4294967295
921.01001 955.48999 154.395 4294967295
923.35797 895.48999 154.02299 4294967295
918.94897 1015.49 154.72099 4294967295
915.95001 1075.49 155.196 4294967295
908.40002 1135.49 156.392 4294967295
904.60699 1195.49 156.993 4294967295
901.896 1237.49 157.422 4294967295
896.99402 955.48999 158.19901 4294967295
896.99402 895.48999 158.19901 4294967295
896.99402 1015.49 158.19901 4294967295
896.99402 1075.49 158.19901 4294967295
896.99402 1135.49 158.19901 4294967295
896.99402 1195.49 158.19901 4294967295
896.99402 1237.5 158.20599 4294967295
896.99402 115.49 0 4294967295
915.42902 115.49 2.91996 4294967295
907.539 55.4902 18.745899 4294967295
896.99402 175.49001 -9.6589804 4294967295
921.23199 175.49001 -5.8200002 4294967295
896.99402 235.49001 -12.4329 4294967295
923.35797 235.49001 -8.2572002 4294967295
932.06 115.49 11.3939 4294967295
943.09802 175.49001 5.3211002 4294967295
947.14099 235.49001 3.8610001 4294967295
945.25897 115.49 24.5924 4294967295
960.45001 175.49001 22.6738 4294967295
966.01599 235.49001 22.7356 4294967295
953.73297 115.49 41.223499 4294967295
971.591 175.49001 44.539501 4294967295
978.13397 235.49001 46.518902 4294967295
956.65302 115.49 59.659302 4294967295
975.42999 175.49001 68.777802 4294967295
982.30902 235.49001 72.883003 4294967295
953.73297 115.49 78.095001 4294967295
971.591 175.49001 93.016098 4294967295
978.13397 235.49001 99.247002 4294967295
945.25897 115.49 94.726097 4294967295
960.45001 175.49001 114.882 4294967295
966.01599 235.49001 123.03 4294967295
932.06 115.49 107.925 4294967295
943.09802 175.49001 132.23399 4294967295
947.14099 235.49001 141.905 4294967295
915.42902 115.49 116.399 4294967295
921.23199 175.49001 143.37601 4294967295
923.35797 235.49001 154.02299 4294967295
896.99402 115.49 119.319 4294967295
896.99402 175.49001 147.215 4294967295
896.99402 235.49001 158.19901 4294967295
896.99402 475.48999 -17.741199 4294967295
928.19 475.48999 -17.2253 4294967295
923.35797 415.48999 -8.2572002 4294967295
896.99402 415.48999 -12.4329 4294967295
896.99402 535.48999 -17.741199 4294967295
928.19 535.48999 -17.2253 4294967295
896.99402 595.48999 -17.741199 4294967295
928.19 595.48999 -17.2253 4294967295
896.99402 655.48999 -17.741199 4294967295
928.19 655.48999 -17.2253 4294967295
896.99402 715.48999 -12.4329 4294967295
923.35797 715.48999 -8.2572002 4294967295
958.91498 475.48999 -12.4545 4294967295
947.14099 415.48999 3.8610001 4294967295
958.91498 535.48999 -12.4545 4294967295
958.91498 595.48999 -12.4545 4294967295
958.91498 655.48999 -12.4545 4294967295
947.14099 715.48999 3.8610001 4294967295
977.01398 475.48999 10.782 4294967295
966.01599 415.48999 22.7356 4294967295
977.01398 535.48999 10.782 4294967295
977.01398 595.48999 10.782 4294967295
977.01398 655.48999 10.782 4294967295
966.01599 715.48999 22.7356 4294967295
980.82501 475.48999 41.715801 4294967295
978.13397 415.48999 46.518902 4294967295
980.82501 535.48999 41.715801 4294967295
980.82501 595.48999 41.715801 4294967295
980.82501 655.48999 41.715801 4294967295
978.13397 715.48999 46.518902 4294967295
982.30902 475.48999 72.883003 4294967295
982.30902 415.48999 72.883003 4294967295
982.30902 535.48999 72.883003 4294967295
982.30902 595.48999 72.883003 4294967295
982.30902 655.48999 72.883003 4294967295
982.30902 715.48999 72.883003 4294967295
978.13397 475.48999 99.247002 4294967295
978.13397 415.48999 99.247002 4294967295
978.13397 535.48999 99.247002 4294967295
978.13397 595.48999 99.247002 4294967295
978.13397 655.48999 99.247002 4294967295
978.13397 715.48999 99.247002 4294967295
966.01599 475.48999 123.03 4294967295
966.01599 415.48999 123.03 4294967295
966.01599 535.48999 123.03 4294967295
966.01599 595.48999 123.03 4294967295
966.01599 655.48999 123.03 4294967295
966.01599 715.48999 123.03 4294967295
947.14099 475.48999 141.905 4294967295
947.14099 415.48999 141.905 4294967295
947.14099 535.48999 141.905 4294967295
947.14099 595.48999 141.905 4294967295
947.14099 655.48999 141.905 4294967295
947.14099 715.48999 141.905 4294967295
923.35797 475.48999 154.02299 4294967295
923.35797 415.48999 154.02299 4294967295
923.35797 535.48999 154.02299 4294967295
923.35797 595.48999 154.02299 4294967295
923.35797 655.48999 154.02299 4294967295
923.35797 715.48999 154.02299 4294967295
896.99402 475.48999 158.19901 4294967295
896.99402 415.48999 158.19901 4294967295
896.99402 535.48999 158.19901 4294967295
896.99402 595.48999 158.19901 4294967295
896.99402 655.48999 158.19901 4294967295
896.99402 715.48999 158.19901 4294967295
896.99402 295.48999 -12.4329 4294967295
923.35797 295.48999 -8.2572002 4294967295
896.99402 355.48999 -12.4329 4294967295
923.35797 355.48999 -8.2572002 4294967295
947.14099 295.48999 3.8610001 4294967295
947.14099 355.48999 3.8610001 4294967295
966.01599 295.48999 22.7356 4294967295
966.01599 355.48999 22.7356 4294967295
978.13397 295.48999 46.518902 4294967295
978.13397 355.48999 46.518902 4294967295
982.30902 295.48999 72.883003 4294967295
982.30902 355.48999 72.883003 4294967295
978.13397 295.48999 99.247002 4294967295
978.13397 355.48999 99.247002 4294967295
966.01599 295.48999 123.03 4294967295
966.01599 355.48999 123.03 4294967295
947.14099 295.48999 141.905 4294967295
947.14099 355.48999 141.905 4294967295
923.35797 295.48999 154.02299 4294967295
923.35797 355.48999 154.02299 4294967295
896.99402 295.48999 158.19901 4294967295
896.99402 355.48999 158.19901 4294967295
896.99402 775.48999 -12.4329 4294967295
923.35797 775.48999 -8.2572002 4294967295
896.99402 835.48999 -12.4329 4294967295
923.35797 835.48999 -8.2572002 4294967295
947.14099 775.48999 3.8610001 4294967295
947.14099 835.48999 3.8610001 4294967295
966.01599 775.48999 22.7356 4294967295
966.01599 835.48999 22.7356 4294967295
978.13397 775.48999 46.518902 4294967295
978.13397 835.48999 46.518902 4294967295
982.30902 775.48999 72.883003 4294967295
982.30902 835.48999 72.883003 4294967295
978.13397 775.48999 99.247002 4294967295
978.13397 835.48999 99.247002 4294967295
966.01599 775.48999 123.03 4294967295
966.01599 835.48999 123.03 4294967295
947.14099 775.48999 141.905 4294967295
947.14099 835.48999 141.905 4294967295
923.35797 775.48999 154.02299 4294967295
923.35797 835.48999 154.02299 4294967295
896.99402 775.48999 158.19901 4294967295
896.99402 835.48999 158.19901 4294967295
897.23297 1237.59 157.97501 4294967295
897.44397 1255.0601 184.218 4294967295
898.44 1245.36 184.218 4294967295
898.354 1226.67 157.97501 4294967295
899.43597 1235.66 184.218 4294967295
899.47601 1215.74 157.97501 4294967295
900.34198 1225.95 184.218 4294967295
900.495 1204.8101 157.97501 4294967295
901.07501 1216.22 184.218 4294967295
901.32098 1193.86 157.97501 4294967295
901.74701 1206.49 184.218 4294967295
902.07703 1182.9 157.97501 4294967295
902.14301 1196.74 184.218 4294967295
902.52301 1171.9301 157.97501 4294967295
902.32599 1186.99 184.218 4294967295
902.729 1160.95 157.97501 4294967295
902.16302 1177.24 184.218 4294967295
902.54602 1149.97 157.97501 4294967295
901.22699 1167.54 184.218 4294967295
901.492 1139.05 157.97501 4294967295
897.44397 1159.01 184.218 4294967295
897.23297 1129.4399 157.97501 4294967295
897.83502 1277.52 221.494 4294967295
898.64301 1269.65 221.494 4294967295
899.45099 1261.78 221.494 4294967295
900.18402 1253.91 221.494 4294967295
900.77899 1246.02 221.494 4294967295
901.323 1238.13 221.494 4294967295
901.64502 1230.23 221.494 4294967295
901.79303 1222.3199 221.494 4294967295
901.66101 1214.42 221.494 4294967295
900.90198 1206.55 221.494 4294967295
897.83502 1199.63 221.494 4294967295
897.27399 1298.3101 250.987 4294967295
897.92401 1291.98 250.987 4294967295
898.57397 1285.64 250.987 4294967295
899.16498 1279.3 250.987 4294967295
899.64398 1272.95 250.987 4294967295
900.08197 1266.6 250.987 4294967295
900.341 1260.24 250.987 4294967295
900.461 1253.88 250.987 4294967295
900.354 1247.51 250.987 4294967295
899.74298 1241.1801 250.987 4294967295
897.27399 1235.61 250.987 4294967295
897.92902 1319.95 282.13 4294967295
897.42499 1315.04 282.13 4294967295
898.93799 1310.12 282.13 4294967295
899.396 1305.21 282.13 4294967295
899.76801 1300.28 282.13 4294967295
900.10699 1295.35 282.13 4294967295
900.30798 1290.42 282.13 4294967295
900.401 1285.48 282.13 4294967295
900.31799 1280.55 282.13 4294967295
899.84399 1275.63 282.13 4294967295
897.92902 1271.3101 282.13 4294967295
1103.5699 1225.26 165.506 4294967295
1102.13 1221.79 168.63499 4294967295
1103.33 1216.26 166.16499 4294967295
1103.03 1231.0601 165.506 4294967295
1100.8199 1227.79 169.896 4294967295
1102 1236.78 165.506 4294967295
1099.49 1233.88 170.638 4294967295
1100.73 1242.46 165.506 4294967295
1098.16 1240.01 170.901 4294967295
1099.3101 1248.11 165.506 4294967295
1096.83 1246.13 170.60699 4294967295
1097.75 1253.71 165.506 4294967295
1095.5 1252.23 169.881 4294967295
1096.1 1259.29 165.506 4294967295
1094.1801 1258.29 168.94299 4294967295
1094.35 1264.85 165.506 4294967295
1092.86 1264.34 167.87 4294967295
1092.55 1270.38 165.506 4294967295
1091.55 1270.36 166.714 4294967295
1090.7 1275.9 165.506 4294967295
1090.24 1276.38 165.506 4294967295
1046.28 1196.29 164.832 4294967295
1047.76 1189.51 161.80099 4294967295
1044.6801 1203.67 166.38 4294967295
1043.05 1211.14 167.291 4294967295
1041.41 1218.66 167.614 4294967295
1039.78 1226.1801 167.254 4294967295
1038.15 1233.65 166.362 4294967295
1036.53 1241.1 165.211 4294967295
1034.91 1248.51 163.894 4294967295
1033.3 1255.91 162.47501 4294967295
1031.6899 1263.3 160.993 4294967295
990.44 1170.8 161.03 4294967295
992.18903 1162.77 157.438 4294967295
988.53699 1179.54 162.86501 4294967295
986.60901 1188.39 163.944 4294967295
984.66803 1197.3101 164.327 4294967295
982.72803 1206.22 163.89999 4294967295
980.79797 1215.08 162.843 4294967295
978.87701 1223.9 161.479 4294967295
976.96301 1232.6899 159.918 4294967295
975.05402 1241.46 158.23599 4294967295
973.14697 1250.22 156.48 4294967295
934.75403 1144.58 155.668 4294967295
936.79303 1135.22 151.48199 4294967295
932.53802 1154.76 157.80499 4294967295
930.28998 1165.08 159.062 4294967295
928.02899 1175.46 159.508 4294967295
925.76898 1185.85 159.011 4294967295
923.52002 1196.17 157.78 4294967295
921.28198 1206.45 156.19 4294967295
919.052 1216.6899 154.371 4294967295
916.82703 1226.91 152.412 4294967295
914.60498 1237.11 150.366 4294967295
1102.25 1221.23 163.48 4294967295
1100.9301 1227.3 162.632 4294967295
1099.59 1233.4301 162.364 4294967295
1098.26 1239.5601 162.48199 4294967295
1096.9301 1245.6801 162.862 4294967295
1095.59 1251.79 163.401 4294967295
1094.26 1257.9 163.978 4294967295
1092.9301 1264.01 164.534 4294967295
1091.6 1270.13 164.98801 4294967295
1090.27 1276.26 165.263 4294967295
1046.4301 1195.61 158.506 4294967295
1044.8101 1203.0601 157.465 4294967295
1043.17 1210.58 157.13699 4294967295
1041.53 1218.11 157.28101 4294967295
1039.9 1225.62 157.74699 4294967295
1038.27 1233.12 158.409 4294967295
1036.63 1240.62 159.118 4294967295
1035 1248.12 159.8 4294967295
1033.36 1255.62 160.35699 4294967295
990.617 1169.99 153.532 4294967295
988.69299 1178.8199 152.299 4294967295
986.75299 1187.73 151.909 4294967295
984.81 1196.65 152.08 4294967295
982.87097 1205.5601 152.633 4294967295
980.93597 1214.45 153.41701 4294967295
979.00098 1223.33 154.257 4294967295
977.06598 1232.22 155.065 4294967295
975.12799 1241.12 155.726 4294967295
934.961 1143.63 146.931 4294967295
932.71899 1153.9301 145.494 4294967295
930.45801 1164.3101 145.03999 4294967295
928.19501 1174.7 145.239 4294967295
925.93597 1185.08 145.883 4294967295
923.67999 1195.4399 146.797 4294967295
921.42603 1205.79 147.776 4294967295
919.17102 1216.14 148.717 4294967295
916.91302 1226.51 149.48801 4294967295
1654 661.263 56.4944 4294967295
1651.83 658.17102 59.623402 4294967295
1651.83 652.51801 57.153702 4294967295
1654.71 667.03699 56.4944 4294967295
1651.83 664.31799 60.884499 4294967295
1654.9301 672.85199 56.4944 4294967295
1651.83 670.54999 61.6264 4294967295
1654.89 678.672 56.4944 4294967295
1651.83 676.82098 61.889599 4294967295
1654.7 684.48901 56.4944 4294967295
1651.83 683.09003 61.596199 4294967295
1654.37 690.29999 56.4944 4294967295
1651.83 689.32501 60.8699 4294967295
1653.9399 696.104 56.4944 4294967295
1651.83 695.53198 59.931702 4294967295
1653.42 701.901 56.4944 4294967295
1651.83 701.71698 58.858601 4294967295
1652.84 707.69098 56.4944 4294967295
1651.83 707.88702 57.7024 4294967295
1652.21 713.47699 56.4944 4294967295
1651.83 714.04797 56.494999 4294967295
1591.84 645.14398 55.821201 4294967295
1591.84 638.20599 52.790199 4294967295
1591.84 652.68903 57.368801 4294967295
1591.84 660.33698 58.2794 4294967295
1591.84 668.03198 58.602402 4294967295
1591.84 675.72601 58.242401 4294967295
1591.84 683.37799 57.351101 4294967295
1591.84 690.99597 56.1996 4294967295
1591.84 698.58698 54.882702 4294967295
1591.84 706.159 53.463501 4294967295
1591.84 713.71997 51.9818 4294967295
1531.85 632.117 52.019001 4294967295
1531.85 623.89398 48.426701 4294967295
1531.85 641.05902 53.853199 4294967295
1531.85 650.12299 54.932499 4294967295
1531.85 659.24402 55.3153 4294967295
1531.85 668.36298 54.8885 4294967295
1531.85 677.43201 53.832199 4294967295
1531.85 686.46002 52.467499 4294967295
1531.85 695.45599 50.906601 4294967295
1531.85 704.43103 49.2248 4294967295
1531.85 713.39203 47.468601 4294967295
1471.86 618.34497 46.656399 4294967295
1471.86 608.76398 42.4706 4294967295
1471.86 628.76398 48.793598 4294967295
1471.86 639.32599 50.051102 4294967295
1471.86 649.953 50.497002 4294967295
1471.86 660.578 49.999901 4294967295
1471.86 671.14502 48.769001 4294967295
1471.86 681.66498 47.178902 4294967295
1471.86 692.14697 45.360199 4294967295
1471.86 702.60498 43.400501 4294967295
1471.86 713.04602 41.354301 4294967295
1411.87 603.82898 44.210602 4294967295
1411.87 592.81598 39.399399 4294967295
1411.87 615.80499 46.667198 4294967295
1411.87 627.94501 48.112598 4294967295
1411.87 640.15997 48.625099 4294967295
1411.87 652.37299 48.053699 4294967295
1411.87 664.51898 46.639 4294967295
1411.87 676.60999 44.811199 4294967295
1411.87 688.659 42.720798 4294967295
1411.87 700.67902 40.4683 4294967295
1411.87 712.67999 38.116299 4294967295
1351.88 589.93402 41.199699 4294967295
1351.88 577.54999 35.789799 4294967295
1351.88 603.40002 43.961899 4294967295
1351.88 617.05103 45.5872 4294967295
1351.88 630.78601 46.163601 4294967295
1351.88 644.51801 45.521 4294967295
1351.88 658.17603 43.930199 4294967295
1351.88 671.77197 41.875 4294967295
1351.88 685.32001 39.524502 4294967295
1351.88 698.836 36.9916 4294967295
1351.88 712.33099 34.346901 4294967295
1291.9 575.54199 36.402199 4294967295
1291.9 561.73901 30.372101 4294967295
1291.9 590.552 39.480999 4294967295
1291.9 605.76703 41.292599 4294967295
1291.9 621.07599 41.935101 4294967295
1291.9 636.383 41.218899 4294967295
1291.9 651.60602 39.445702 4294967295
1291.9 666.76099 37.1549 4294967295
1291.9 681.862 34.534901 4294967295
1291.9 696.927 31.7118 4294967295
1291.9 711.96899 28.763901 4294967295
1231.91 560.65399 34.295502 4294967295
1231.91 545.38202 27.624001 4294967295
1231.91 577.26001 37.7019 4294967295
1231.91 594.09399 39.7062 4294967295
1231.91 611.03198 40.417 4294967295
1231.91 627.96802 39.624599 4294967295
1231.91 644.81 37.6628 4294967295
1231.91 661.57703 35.1283 4294967295
1231.91 678.28497 32.229599 4294967295
1231.91 694.95203 29.106199 4294967295
1231.91 711.59399 25.8447 4294967295
1171.92 547.00702 31.0585 4294967295
1171.92 530.38898 23.798901 4294967295
1171.92 565.07599 34.765099 4294967295
1171.92 583.39398 36.946098 4294967295
1171.92 601.82501 37.719501 4294967295
1171.92 620.25299 36.8573 4294967295
1171.92 638.58002 34.722599 4294967295
1171.92 656.82501 31.964701 4294967295
1171.92 675.005 28.810499 4294967295
1171.92 693.14203 25.411699 4294967295
1171.92 711.25098 21.862801 4294967295
1111.9399 520.70898 30.3918 4294967295
1111.9399 501.49799 21.9991 4294967295
1111.9399 541.59998 34.676899 4294967295
1111.9399 562.776 37.198299 4294967295
1111.9399 584.08398 38.092499 4294967295
1111.9399 605.38898 37.095699 4294967295
1111.9399 626.57599 34.627701 4294967295
1111.9399 647.66803 31.4394 4294967295
1111.9399 668.68597 27.7929 4294967295
1111.9399 689.65399 23.863701 4294967295
1111.9399 710.58899 19.760799 4294967295
1051.96 494.40201 27.495399 4294967295
1051.96 472.59601 17.9692 4294967295
1051.96 518.11401 32.359299 4294967295
1051.96 542.151 35.221298 4294967295
1051.96 566.336 36.236198 4294967295
1051.96 590.51801 35.104698 4294967295
1051.96 614.56702 32.303501 4294967295
1051.96 638.508 28.6845 4294967295
1051.96 662.36499 24.5455 4294967295
1051.96 686.164 20.0856 4294967295
1051.96 709.927 15.4286 4294967295
987.323 467.35501 25.272699 4294967295
987.323 442.88101 14.5811 4294967295
987.323 493.96799 30.7316 4294967295
987.323 520.94501 33.943699 4294967295
987.323 548.09003 35.082802 4294967295
987.323 575.22998 33.812901 4294967295
987.323 602.22101 30.669001 4294967295
987.323 629.09003 26.6073 4294967295
987.323 655.86603 21.961901 4294967295
987.323 682.57703 16.9564 4294967295
987.323 709.24597 11.7297 4294967295
1651.83 657.599 54.468498 4294967295
1651.83 663.815 53.6203 4294967295
1651.83 670.08502 53.352699 4294967295
1651.83 676.36102 53.4702 4294967295
1651.83 682.62701 53.850399 4294967295
1651.83 688.88202 54.389301 4294967295
1651.83 695.133 54.966999 4294967295
1651.83 701.38599 55.522598 4294967295
1651.83 707.64697 55.977001 4294967295
1651.83 713.91803 56.251801 4294967295
1591.84 644.44202 49.494801 4294967295
1591.84 652.07098 48.4538 4294967295
1591.84 659.76599 48.125301 4294967295
1591.84 667.46802 48.2696 4294967295
1591.84 675.15802 48.736099 4294967295
1591.84 682.83398 49.397598 4294967295
1591.84 690.50598 50.106499 4294967295
1591.84 698.17999 50.7883 4294967295
1591.84 705.86401 51.3461 4294967295
1591.84 713.56097 51.6833 4294967295
1531.85 631.284 44.521099 4294967295
1531.85 640.32599 43.287201 4294967295
1531.85 649.44702 42.897999 4294967295
1531.85 658.57501 43.069 4294967295
1531.85 667.68903 43.621899 4294967295
1531.85 676.78699 44.4058 4294967295
1531.85 685.87903 45.245998 4294967295
1531.85 694.97498 46.0541 4294967295
1531.85 704.08197 46.715199 4294967295
1531.85 713.20398 47.114899 4294967295
1471.86 617.375 37.919899 4294967295
1471.86 627.91101 36.4823 4294967295
1471.86 638.53802 36.028702 4294967295
1471.86 649.17401 36.227901 4294967295
1471.86 659.79303 36.872101 4294967295
1471.86 670.39398 37.785599 4294967295
1471.86 680.98798 38.764599 4294967295
1471.86 691.586 39.7062 4294967295
1471.86 702.19702 40.476501 4294967295
1411.87 602.71503 34.168701 4294967295
1411.87 614.82501 32.5163 4294967295
1411.87 627.039 31.9949 4294967295
1411.87 639.26501 32.223801 4294967295
1411.87 651.47101 32.964401 4294967295
1411.87 663.65503 34.0144 4294967295
1411.87 675.83301 35.139599 4294967295
1411.87 688.01398 36.221901 4294967295
1411.87 700.211 37.107201 4294967295
1411.87 712.42798 37.642502 4294967295
1351.88 588.67999 29.9081 4294967295
1351.88 602.297 28.049999 4294967295
1351.88 616.03198 27.4638 4294967295
1351.88 629.77899 27.7213 4294967295
1351.88 643.50403 28.5539 4294967295
1351.88 657.20502 29.7346 4294967295
1351.88 670.89801 30.9998 4294967295
1351.88 684.59497 32.216801 4294967295
1351.88 698.31 33.212299 4294967295
1351.88 712.047 33.814201 4294967295
1291.9 574.14502 23.816299 4294967295
1291.9 589.323 21.7453 4294967295
1291.9 604.63202 21.0919 4294967295
1291.9 619.95398 21.378799 4294967295
1291.9 635.25299 22.3069 4294967295
1291.9 650.52399 23.622801 4294967295
1291.9 665.78601 25.0331 4294967295
1291.9 681.05402 26.389601 4294967295
1291.9 696.341 27.4993 4294967295
1291.9 711.65198 28.170099 4294967295
1231.91 559.10797 20.370701 4294967295
1231.91 575.90002 18.0793 4294967295
1231.91 592.83899 17.3564 4294967295
1231.91 609.79102 17.673901 4294967295
1231.91 626.71698 18.700701 4294967295
1231.91 643.612 20.1567 4294967295
1231.91 660.49902 21.716999 4294967295
1231.91 677.39001 23.2178 4294967295
1231.91 694.30298 24.445499 4294967295
1231.91 711.24402 25.187799 4294967295
1171.92 545.32397 15.9064 4294967295
1171.92 563.59698 13.413 4294967295
1171.92 582.02802 12.6264 4294967295
1171.92 600.474 12.9718 4294967295
1171.92 618.89203 14.0891 4294967295
1171.92 637.27698 15.6734 4294967295
1171.92 655.65198 17.3713 4294967295
1171.92 674.03198 19.0044 4294967295
1171.92 692.43597 20.3403 4294967295
1171.92 710.87 21.148001 4294967295
1111.9399 518.76398 12.8746 4294967295
1111.9399 539.88898 9.9921598 4294967295
1111.9399 561.19702 9.0827398 4294967295
1111.9399 582.52197 9.4820995 4294967295
1111.9399 603.815 10.7738 4294967295
1111.9399 625.06897 12.6054 4294967295
1111.9399 646.31201 14.5682 4294967295
1111.9399 667.56097 16.456301 4294967295
1111.9399 688.83801 18.0007 4294967295
1111.9399 710.14801 18.934401 4294967295
1051.96 492.194 7.61238 4294967295
1051.96 516.172 4.34058 4294967295
1051.96 540.35797 3.3083401 4294967295
1051.96 564.56403 3.7616401 4294967295
1051.96 588.73199 5.2277398 4294967295
1051.96 612.85699 7.3067398 4294967295
1051.96 636.96899 9.5347204 4294967295
1051.96 661.08801 11.6777 4294967295
1051.96 685.23798 13.4307 4294967295
1051.96 709.427 14.4905 4294967295
987.323 464.87799 2.9572799 4294967295
987.323 491.789 -0.71477997 4294967295
987.323 518.93298 -1.87332 4294967295
987.323 546.09998 -1.36452 4294967295
987.323 573.22498 0.28097999 4294967295
987.323 600.30103 2.61432 4294967295
987.323 627.36298 5.11482 4294967295
987.323 654.43201 7.51998 4294967295
987.323 681.53699 9.4874401 4294967295
870.63 895.48999 -8.2572002 4294967295
872.97803 955.48999 6.5682602 4294967295
875.03802 1015.49 19.575899 4294967295
878.03699 1075.49 38.512798 4294967295
885.58801 1135.49 86.1847 4294967295
889.38 1195.49 110.127 4294967295
892.091 1237.49 127.245 4294967295
846.84601 895.48999 3.8610001 4294967295
851.31299 955.48999 17.6071 4294967295
855.23102 1015.49 29.667801 4294967295
860.93597 1075.49 47.226101 4294967295
875.29797 1135.49 91.427299 4294967295
882.51099 1195.49 113.627 4294967295
887.66803 1237.49 129.498 4294967295
827.97198 895.48999 22.7356 4294967295
834.11902 955.48999 34.800701 4294967295
839.513 1015.49 45.386398 4294967295
847.36499 1075.49 60.797401 4294967295
867.133 1135.49 99.593102 4294967295
877.06 1195.49 119.078 4294967295
884.159 1237.49 133.008 4294967295
815.854 895.48999 46.518902 4294967295
823.08002 955.48999 56.465698 4294967295
829.42102 1015.49 65.192902 4294967295
838.65198 1075.49 77.898201 4294967295
861.89001 1135.49 109.882 4294967295
873.56097 1195.49 125.946 4294967295
881.90503 1237.49 137.431 4294967295
811.67798 895.48999 72.883003 4294967295
819.27698 955.48999 80.481598 4294967295
825.94299 1015.49 87.148598 4294967295
835.65002 1075.49 96.854599 4294967295
860.08301 1135.49 121.288 4294967295
872.35498 1195.49 133.56 4294967295
881.12903 1237.49 142.334 4294967295
815.854 895.48999 99.247002 4294967295
823.08002 955.48999 104.498 4294967295
829.42102 1015.49 109.104 4294967295
838.65198 1075.49 115.811 4294967295
861.89001 1135.49 132.694 4294967295
873.56097 1195.49 141.174 4294967295
881.90503 1237.49 147.23599 4294967295
827.97198 895.48999 123.03 4294967295
834.11902 955.48999 126.163 4294967295
839.513 1015.49 128.911 4294967295
847.36499 1075.49 132.912 4294967295
867.133 1135.49 142.98399 4294967295
877.06 1195.49 148.04201 4294967295
884.159 1237.49 151.659 4294967295
846.84601 895.48999 141.905 4294967295
851.31299 955.48999 143.356 4294967295
855.23102 1015.49 144.629 4294967295
860.93597 1075.49 146.483 4294967295
875.29797 1135.49 151.149 4294967295
882.51099 1195.49 153.493 4294967295
887.66803 1237.49 155.16901 4294967295
870.63 895.48999 154.02299 4294967295
872.97803 955.48999 154.395 4294967295
875.03802 1015.49 154.72099 4294967295
878.03699 1075.49 155.196 4294967295
885.58801 1135.49 156.392 4294967295
889.38 1195.49 156.993 4294967295
892.091 1237.49 157.422 4294967295
886.448 55.4902 18.745899 4294967295
878.55798 115.49 2.91996 4294967295
872.755 175.49001 -5.8200002 4294967295
870.63 235.49001 -8.2572002 4294967295
861.927 115.49 11.3939 4294967295
850.89001 175.49001 5.3211002 4294967295
846.84601 235.49001 3.8610001 4294967295
848.72803 115.49 24.5924 4294967295
833.53699 175.49001 22.6738 4294967295
827.97198 235.49001 22.7356 4294967295
840.25403 115.49 41.223499 4294967295
822.396 175.49001 44.539501 4294967295
815.854 235.49001 46.518902 4294967295
837.33398 115.49 59.659302 4294967295
818.55701 175.49001 68.777802 4294967295
811.67798 235.49001 72.883003 4294967295
840.25403 115.49 78.095001 4294967295
822.396 175.49001 93.016098 4294967295
815.854 235.49001 99.247002 4294967295
848.72803 115.49 94.726097 4294967295
833.53699 175.49001 114.882 4294967295
827.97198 235.49001 123.03 4294967295
861.927 115.49 107.925 4294967295
850.89001 175.49001 132.23399 4294967295
846.84601 235.49001 141.905 4294967295
878.55798 115.49 116.399 4294967295
872.755 175.49001 143.37601 4294967295
870.63 235.49001 154.02299 4294967295
870.63 415.48999 -8.2572002 4294967295
865.797 475.48999 -17.2253 4294967295
865.797 535.48999 -17.2253 4294967295
865.797 595.48999 -17.2253 4294967295
865.797 655.48999 -17.2253 4294967295
870.63 715.48999 -8.2572002 4294967295
846.84601 415.48999 3.8610001 4294967295
835.073 475.48999 -12.4545 4294967295
835.073 535.48999 -12.4545 4294967295
835.073 595.48999 -12.4545 4294967295
835.073 655.48999 -12.4545 4294967295
846.84601 715.48999 3.8610001 4294967295
827.97198 415.48999 22.7356 4294967295
816.97302 475.48999 10.782 4294967295
816.97302 535.48999 10.782 4294967295
816.97302 595.48999 10.782 4294967295
816.97302 655.48999 10.782 4294967295
827.97198 715.48999 22.7356 4294967295
815.854 415.48999 46.518902 4294967295
813.16199 475.48999 41.715801 4294967295
813.16199 535.48999 41.715801 4294967295
813.16199 595.48999 41.715801 4294967295
813.16199 655.48999 41.715801 4294967295
815.854 715.48999 46.518902 4294967295
811.67798 415.48999 72.883003 4294967295
811.67798 475.48999 72.883003 4294967295
811.67798 535.48999 72.883003 4294967295
811.67798 595.48999 72.883003 4294967295
811.67798 655.48999 72.883003 4294967295
811.67798 715.48999 72.883003 4294967295
815.854 415.48999 99.247002 4294967295
815.854 475.48999 99.247002 4294967295
815.854 535.48999 99.247002 4294967295
815.854 595.48999 99.247002 4294967295
815.854 655.48999 99.247002 4294967295
815.854 715.48999 99.247002 4294967295
827.97198 415.48999 123.03 4294967295
827.97198 475.48999 123.03 4294967295
827.97198 535.48999 123.03 4294967295
827.97198 595.48999 123.03 4294967295
827.97198 655.48999 123.03 4294967295
827.97198 715.48999 123.03 4294967295
846.84601 415.48999 141.905 4294967295
846.84601 475.48999 141.905 4294967295
846.84601 535.48999 141.905 4294967295
846.84601 595.48999 141.905 4294967295
846.84601 655.48999 141.905 4294967295
846.84601 715.48999 141.905 4294967295
870.63 415.48999 154.02299 4294967295
870.63 475.48999 154.02299 4294967295
870.63 535.48999 154.02299 4294967295
870.63 595.48999 154.02299 4294967295
870.63 655.48999 154.02299 4294967295
870.63 715.48999 154.02299 4294967295
870.63 295.48999 -8.2572002 4294967295
870.63 355.48999 -8.2572002 4294967295
846.84601 295.48999 3.8610001 4294967295
846.84601 355.48999 3.8610001 4294967295
827.97198 295.48999 22.7356 4294967295
827.97198 355.48999 22.7356 4294967295
815.854 295.48999 46.518902 4294967295
815.854 355.48999 46.518902 4294967295
811.67798 295.48999 72.883003 4294967295
811.67798 355.48999 72.883003 4294967295
815.854 295.48999 99.247002 4294967295
815.854 355.48999 99.247002 4294967295
827.97198 295.48999 123.03 4294967295
827.97198 355.48999 123.03 4294967295
846.84601 295.48999 141.905 4294967295
846.84601 355.48999 141.905 4294967295
870.63 295.48999 154.02299 4294967295
870.63 355.48999 154.02299 4294967295
870.63 775.48999 -8.2572002 4294967295
870.63 835.48999 -8.2572002 4294967295
846.84601 775.48999 3.8610001 4294967295
846.84601 835.48999 3.8610001 4294967295
827.97198 775.48999 22.7356 4294967295
827.97198 835.48999 22.7356 4294967295
815.854 775.48999 46.518902 4294967295
815.854 835.48999 46.518902 4294967295
811.67798 775.48999 72.883003 4294967295
811.67798 835.48999 72.883003 4294967295
815.854 775.48999 99.247002 4294967295
815.854 835.48999 99.247002 4294967295
827.97198 775.48999 123.03 4294967295
827.97198 835.48999 123.03 4294967295
846.84601 775.48999 141.905 4294967295
846.84601 835.48999 141.905 4294967295
870.63 775.48999 154.02299 4294967295
870.63 835.48999 154.02299 4294967295
895.633 1226.67 157.97501 4294967295
895.547 1245.36 184.218 4294967295
896.54303 1255.0601 184.218 4294967295
896.755 1237.59 157.97501 4294967295
894.51099 1215.74 157.97501 4294967295
894.55103 1235.66 184.218 4294967295
893.492 1204.8101 157.97501 4294967295
893.646 1225.95 184.218 4294967295
892.66602 1193.86 157.97501 4294967295
892.91199 1216.22 184.218 4294967295
891.90997 1182.9 157.97501 4294967295
892.24103 1206.49 184.218 4294967295
891.46399 1171.9301 157.97501 4294967295
891.84399 1196.74 184.218 4294967295
891.258 1160.95 157.97501 4294967295
891.66101 1186.99 184.218 4294967295
891.44098 1149.97 157.97501 4294967295
891.82397 1177.24 184.218 4294967295
892.49597 1139.05 157.97501 4294967295
892.76099 1167.54 184.218 4294967295
896.755 1129.4399 157.97501 4294967295
896.54303 1159.01 184.218 4294967295
895.34497 1269.65 221.494 4294967295
896.15198 1277.52 221.494 4294967295
894.53699 1261.78 221.494 4294967295
893.80298 1253.91 221.494 4294967295
893.20801 1246.02 221.494 4294967295
892.664 1238.13 221.494 4294967295
892.34198 1230.23 221.494 4294967295
892.19397 1222.3199 221.494 4294967295
892.32599 1214.42 221.494 4294967295
893.08502 1206.55 221.494 4294967295
896.15198 1199.63 221.494 4294967295
896.06299 1291.98 250.987 4294967295
896.71399 1298.3101 250.987 4294967295
895.41302 1285.64 250.987 4294967295
894.82202 1279.3 250.987 4294967295
894.34302 1272.95 250.987 4294967295
893.90503 1266.6 250.987 4294967295
893.646 1260.24 250.987 4294967295
893.52698 1253.88 250.987 4294967295
893.633 1247.51 250.987 4294967295
894.24402 1241.1801 250.987 4294967295
896.71399 1235.61 250.987 4294967295
896.56299 1315.04 282.13 4294967295
896.05798 1319.95 282.13 4294967295
895.04901 1310.12 282.13 4294967295
894.591 1305.21 282.13 4294967295
894.21997 1300.28 282.13 4294967295
893.88 1295.35 282.13 4294967295
893.67902 1290.42 282.13 4294967295
893.586 1285.48 282.13 4294967295
893.66901 1280.55 282.13 4294967295
894.14301 1275.63 282.13 4294967295
896.05798 1271.3101 282.13 4294967295
690.65601 1216.26 166.16499 4294967295
691.85901 1221.79 168.63499 4294967295
690.41901 1225.26 165.506 4294967295
693.16699 1227.79 169.896 4294967295
690.95203 1231.0601 165.506 4294967295
694.49298 1233.88 170.638 4294967295
691.98297 1236.78 165.506 4294967295
695.82703 1240.01 170.901 4294967295
693.25897 1242.46 165.506 4294967295
697.16101 1246.13 170.60699 4294967295
694.67902 1248.11 165.506 4294967295
698.487 1252.23 169.881 4294967295
696.23499 1253.71 165.506 4294967295
699.80798 1258.29 168.94299 4294967295
697.89203 1259.29 165.506 4294967295
701.12402 1264.34 167.87 4294967295
699.63599 1264.85 165.506 4294967295
702.43701 1270.36 166.714 4294967295
701.43799 1270.38 165.506 4294967295
703.74701 1276.38 165.506 4294967295
703.28497 1275.9 165.506 4294967295
746.22699 1189.51 161.80099 4294967295
747.703 1196.29 164.832 4294967295
749.30798 1203.67 166.38 4294967295
750.93597 1211.14 167.291 4294967295
752.573 1218.66 167.614 4294967295
754.21002 1226.1801 167.254 4294967295
755.83801 1233.65 166.362 4294967295
757.45898 1241.1 165.211 4294967295
759.07397 1248.51 163.894 4294967295
760.685 1255.91 162.47501 4294967295
762.29401 1263.3 160.993 4294967295
801.79797 1162.77 157.438 4294967295
803.547 1170.8 161.03 4294967295
805.45001 1179.54 162.86501 4294967295
807.37903 1188.39 163.944 4294967295
809.31897 1197.3101 164.327 4294967295
811.25897 1206.22 163.89999 4294967295
813.18903 1215.08 162.843 4294967295
815.10999 1223.9 161.479 4294967295
817.02399 1232.6899 159.918 4294967295
818.93402 1241.46 158.23599 4294967295
820.84003 1250.22 156.48 4294967295
857.19397 1135.22 151.48199 4294967295
859.23297 1144.58 155.668 4294967295
861.45001 1154.76 157.80499 4294967295
863.69702 1165.08 159.062 4294967295
865.95801 1175.46 159.508 4294967295
868.21899 1185.85 159.011 4294967295
870.46698 1196.17 157.78 4294967295
872.70502 1206.45 156.19 4294967295
874.93597 1216.6899 154.371 4294967295
877.16101 1226.91 152.412 4294967295
879.38202 1237.11 150.366 4294967295
691.737 1221.23 163.48 4294967295
693.06 1227.3 162.632 4294967295
694.39398 1233.4301 162.364 4294967295
695.729 1239.5601 162.48199 4294967295
697.06201 1245.6801 162.862 4294967295
698.39301 1251.79 163.401 4294967295
699.72302 1257.9 163.978 4294967295
701.05298 1264.01 164.534 4294967295
702.38599 1270.13 164.98801 4294967295
703.71997 1276.26 165.263 4294967295
747.55402 1195.61 158.506 4294967295
749.177 1203.0601 157.465 4294967295
750.81403 1210.58 157.13699 4294967295
752.453 1218.11 157.28101 4294967295
754.08899 1225.62 157.74699 4294967295
755.72198 1233.12 158.409 4294967295
757.35498 1240.62 159.118 4294967295
758.98798 1248.12 159.8 4294967295
760.62201 1255.62 160.35699 4294967295
803.37 1169.99 153.532 4294967295
805.29401 1178.8199 152.299 4294967295
807.23499 1187.73 151.909 4294967295
809.177 1196.65 152.08 4294967295
811.11603 1205.5601 152.633 4294967295
813.052 1214.45 153.41701 4294967295
814.98602 1223.33 154.257 4294967295
816.922 1232.22 155.065 4294967295
818.85901 1241.12 155.726 4294967295
859.02698 1143.63 146.931 4294967295
861.26801 1153.9301 145.494 4294967295
863.52899 1164.3101 145.03999 4294967295
865.79199 1174.7 145.239 4294967295
868.052 1185.08 145.883 4294967295
870.30701 1195.4399 146.797 4294967295
872.56097 1205.79 147.776 4294967295
874.81598 1216.14 148.717 4294967295
877.07397 1226.51 149.48801 4294967295
142.157 652.51801 57.153702 4294967295
142.157 658.17102 59.623402 4294967295
139.983 661.263 56.4944 4294967295
142.157 664.31799 60.884499 4294967295
139.272 667.03699 56.4944 4294967295
142.157 670.54999 61.6264 4294967295
139.061 672.85199 56.4944 4294967295
142.157 676.82098 61.889599 4294967295
139.099 678.672 56.4944 4294967295
142.157 683.09003 61.596199 4294967295
139.286 684.48901 56.4944 4294967295
142.157 689.32501 60.8699 4294967295
139.614 690.29999 56.4944 4294967295
142.157 695.53198 59.931702 4294967295
140.045 696.104 56.4944 4294967295
142.157 701.71698 58.858601 4294967295
140.56799 701.901 56.4944 4294967295
142.157 707.88702 57.7024 4294967295
141.151 707.69098 56.4944 4294967295
142.157 714.04797 56.494999 4294967295
141.782 713.47699 56.4944 4294967295
202.147 638.20599 52.790199 4294967295
202.147 645.14398 55.821201 4294967295
202.147 652.68903 57.368801 4294967295
202.147 660.33698 58.2794 4294967295
202.147 668.03198 58.602402 4294967295
202.147 675.72601 58.242401 4294967295
202.147 683.37799 57.351101 4294967295
202.147 690.99597 56.1996 4294967295
202.147 698.58698 54.882702 4294967295
202.147 706.159 53.463501 4294967295
202.147 713.71997 51.9818 4294967295
262.13599 623.89398 48.426701 4294967295
262.13599 632.117 52.019001 4294967295
262.13599 641.05902 53.853199 4294967295
262.13599 650.12299 54.932499 4294967295
262.13599 659.24402 55.3153 4294967295
262.13599 668.36298 54.8885 4294967295
262.13599 677.43201 53.832199 4294967295
262.13599 686.46002 52.467499 4294967295
262.13599 695.45599 50.906601 4294967295
262.13599 704.43103 49.2248 4294967295
262.13599 713.39203 47.468601 4294967295
322.12601 608.76398 42.4706 4294967295
322.12601 618.34497 46.656399 4294967295
322.12601 628.76398 48.793598 4294967295
322.12601 639.32599 50.051102 4294967295
322.12601 649.953 50.497002 4294967295
322.12601 660.578 49.999901 4294967295
322.12601 671.14502 48.769001 4294967295
322.12601 681.66498 47.178902 4294967295
322.12601 692.14697 45.360199 4294967295
322.12601 702.60498 43.400501 4294967295
322.12601 713.04602 41.354301 4294967295
382.11401 592.81598 39.399399 4294967295
382.11401 603.82898 44.210602 4294967295
382.11401 615.80499 46.667198 4294967295
382.11401 627.94501 48.112598 4294967295
382.11401 640.15997 48.625099 4294967295
382.11401 652.37299 48.053699 4294967295
382.11401 664.51898 46.639 4294967295
382.11401 676.60999 44.811199 4294967295
382.11401 688.659 42.720798 4294967295
382.11401 700.67902 40.4683 4294967295
382.11401 712.67999 38.116299 4294967295
442.103 577.54999 35.789799 4294967295
442.103 589.93402 41.199699 4294967295
442.103 603.40002 43.961899 4294967295
442.103 617.05103 45.5872 4294967295
442.103 630.78601 46.163601 4294967295
442.103 644.51801 45.521 4294967295
442.103 658.17603 43.930199 4294967295
442.103 671.77197 41.875 4294967295
442.103 685.32001 39.524502 4294967295
442.103 698.836 36.9916 4294967295
442.103 712.33099 34.346901 4294967295
502.09201 561.73901 30.372101 4294967295
502.09201 575.54199 36.402199 4294967295
502.09201 590.552 39.480999 4294967295
502.09201 605.76703 41.292599 4294967295
502.09201 621.07599 41.935101 4294967295
502.09201 636.383 41.218899 4294967295
502.09201 651.60602 39.445702 4294967295
502.09201 666.76099 37.1549 4294967295
502.09201 681.862 34.534901 4294967295
502.09201 696.927 31.7118 4294967295
502.09201 711.96899 28.763901 4294967295
562.08002 545.38202 27.624001 4294967295
562.08002 560.65399 34.295502 4294967295
562.08002 577.26001 37.7019 4294967295
562.08002 594.09399 39.7062 4294967295
562.08002 611.03198 40.417 4294967295
562.08002 627.96802 39.624599 4294967295
562.08002 644.81 37.6628 4294967295
562.08002 661.57703 35.1283 4294967295
562.08002 678.28497 32.229599 4294967295
562.08002 694.95203 29.106199 4294967295
562.08002 711.59399 25.8447 4294967295
622.06897 530.38898 23.798901 4294967295
622.06897 547.00702 31.0585 4294967295
622.06897 565.07599 34.765099 4294967295
622.06897 583.39398 36.946098 4294967295
622.06897 601.82501 37.719501 4294967295
622.06897 620.25299 36.8573 4294967295
622.06897 638.58002 34.722599 4294967295
622.06897 656.82501 31.964701 4294967295
622.06897 675.005 28.810499 4294967295
622.06897 693.14203 25.411699 4294967295
622.06897 711.25098 21.862801 4294967295
682.04901 501.49799 21.9991 4294967295
682.04901 520.70898 30.3918 4294967295
682.04901 541.59998 34.676899 4294967295
682.04901 562.776 37.198299 4294967295
682.04901 584.08398 38.092499 4294967295
682.04901 605.38898 37.095699 4294967295
682.04901 626.57599 34.627701 4294967295
682.04901 647.66803 31.4394 4294967295
682.04901 668.68597 27.7929 4294967295
682.04901 689.65399 23.863701 4294967295
682.04901 710.58899 19.760799 4294967295
742.02802 472.59601 17.9692 4294967295
742.02802 494.40201 27.495399 4294967295
742.02802 518.11401 32.359299 4294967295
742.02802 542.151 35.221298 4294967295
742.02802 566.336 36.236198 4294967295
742.02802 590.51801 35.104698 4294967295
742.02802 614.56702 32.303501 4294967295
742.02802 638.508 28.6845 4294967295
742.02802 662.36499 24.5455 4294967295
742.02802 686.164 20.0856 4294967295
742.02802 709.927 15.4286 4294967295
806.66498 442.88101 14.5811 4294967295
806.66498 467.35501 25.272699 4294967295
806.66498 493.96799 30.7316 4294967295
806.66498 520.94501 33.943699 4294967295
806.66498 548.09003 35.082802 4294967295
806.66498 575.22998 33.812901 4294967295
806.66498 602.22101 30.669001 4294967295
806.66498 629.09003 26.6073 4294967295
806.66498 655.86603 21.961901 4294967295
806.66498 682.57703 16.9564 4294967295
806.66498 709.24597 11.7297 4294967295
142.157 657.599 54.468498 4294967295
142.157 663.815 53.6203 4294967295
142.157 670.08502 53.352699 4294967295
142.157 676.36102 53.4702 4294967295
142.157 682.62701 53.850399 4294967295
142.157 688.88202 54.389301 4294967295
142.157 695.133 54.966999 4294967295
142.157 701.38599 55.522598 4294967295
142.157 707.64697 55.977001 4294967295
142.157 713.91803 56.251801 4294967295
202.147 644.44202 49.494801 4294967295
202.147 652.07098 48.4538 4294967295
202.147 659.76599 48.125301 4294967295
202.147 667.46802 48.2696 4294967295
202.147 675.15802 48.736099 4294967295
202.147 682.83398 49.397598 4294967295
202.147 690.50598 50.106499 4294967295
202.147 698.17999 50.7883 4294967295
202.147 705.86401 51.3461 4294967295
202.147 713.56097 51.6833 4294967295
262.13599 631.284 44.521099 4294967295
262.13599 640.32599 43.287201 4294967295
262.13599 649.44702 42.897999 4294967295
262.13599 658.57501 43.069 4294967295
262.13599 667.68903 43.621899 4294967295
262.13599 676.78699 44.4058 4294967295
262.13599 685.87903 45.245998 4294967295
262.13599 694.97498 46.0541 4294967295
262.13599 704.08197 46.715199 4294967295
262.13599 713.20398 47.114899 4294967295
322.12601 617.375 37.919899 4294967295
322.12601 627.91101 36.4823 4294967295
322.12601 638.53802 36.028702 4294967295
322.12601 649.17401 36.227901 4294967295
322.12601 659.79303 36.872101 4294967295
322.12601 670.39398 37.785599 4294967295
322.12601 680.98798 38.764599 4294967295
322.12601 691.586 39.7062 4294967295
322.12601 702.19702 40.476501 4294967295
382.11401 602.71503 34.168701 4294967295
382.11401 614.82501 32.5163 4294967295
382.11401 627.039 31.9949 4294967295
382.11401 639.26501 32.223801 4294967295
382.11401 651.47101 32.964401 4294967295
382.11401 663.65503 34.0144 4294967295
382.11401 675.83301 35.139599 4294967295
382.11401 688.01398 36.221901 4294967295
382.11401 700.211 37.107201 4294967295
382.11401 712.42798 37.642502 4294967295
442.103 588.67999 29.9081 4294967295
442.103 602.297 28.049999 4294967295
442.103 616.03198 27.4638 4294967295
442.103 629.77899 27.7213 4294967295
442.103 643.50403 28.5539 4294967295
442.103 657.20502 29.7346 4294967295
442.103 670.89801 30.9998 4294967295
442.103 684.59497 32.216801 4294967295
442.103 698.31 33.212299 4294967295
442.103 712.047 33.814201 4294967295
502.09201 574.14502 23.816299 4294967295
502.09201 589.323 21.7453 4294967295
502.09201 604.63202 21.0919 4294967295
502.09201 619.95398 21.378799 4294967295
502.09201 635.25299 22.3069 4294967295
502.09201 650.52399 23.622801 4294967295
502.09201 665.78601 25.0331 4294967295
502.09201 681.05402 26.389601 4294967295
502.09201 696.341 27.4993 4294967295
502.09201 711.65198 28.170099 4294967295
562.08002 559.10797 20.370701 4294967295
562.08002 575.90002 18.0793 4294967295
562.08002 592.83899 17.3564 4294967295
562.08002 609.79102 17.673901 4294967295
562.08002 626.71698 18.700701 4294967295
562.08002 643.612 20.1567 4294967295
562.08002 660.49902 21.716999 4294967295
562.08002 677.39001 23.2178 4294967295
562.08002 694.30298 24.445499 4294967295
562.08002 711.24402 25.187799 4294967295
622.06897 545.32397 15.9064 4294967295
622.06897 563.59698 13.413 4294967295
622.06897 582.02802 12.6264 4294967295
622.06897 600.474 12.9718 4294967295
622.06897 618.89203 14.0891 4294967295
622.06897 637.27698 15.6734 4294967295
622.06897 655.65198 17.3713 4294967295
622.06897 674.03198 19.0044 4294967295
622.06897 692.43597 20.3403 4294967295
622.06897 710.87 21.148001 4294967295
682.04901 518.76398 12.8746 4294967295
682.04901 539.88898 9.9921598 4294967295
