# .PCD v0.7 - Point Cloud Data file format
VERSION 0.7
FIELDS x y z rgba
SIZE 4 4 4 4
TYPE F F F U
COUNT 1 1 1 1
WIDTH 1173
HEIGHT 1
VIEWPOINT 0 0 0 1 0 0 0
POINTS 1173
DATA ascii
915.90375 52.941242 40.838715 4294967295
888.56329 64.964439 -7.8926353 4294967295
853.81335 39.739048 10.974986 4294967295
881.1369 52.945618 29.523926 4294967295
886.75098 38.971886 28.693043 4294967295
893.76886 15.904247 38.236012 4294967295
876.68658 45.869343 37.413708 4294967295
858.40552 68.783546 -18.988636 4294967295
896.90765 81.306442 19.040394 4294967295
895.71289 3.4072516 22.836685 4294967295
842.70819 22.388323 37.812664 4294967295
851.15173 44.982906 57.431789 4294967295
873.47449 -23.332823 19.207737 4294967295
885.5473 7.9024534 61.341507 4294967295
901.07501 56.405647 59.183102 4294967295
839.15765 4.8828559 38.175526 4294967295
886.47919 25.120323 20.867239 4294967295
850.04395 30.074852 3.5823131 4294967295
893.09351 21.931171 57.620834 4294967295
817.26172 59.442547 39.396931 4294967295
879.3374 60.270912 48.071815 4294967295
903.79852 25.123405 36.10495 4294967295
906.98993 64.395531 31.048567 4294967295
855.90723 25.075586 34.51202 4294967295
880.39636 34.263706 45.896736 4294967295
867.80701 45.655426 70.195137 4294967295
871.74872 84.437454 20.099119 4294967295
872.14728 69.132423 113.39442 4294967295
890.36676 87.342857 70.877228 4294967295
928.66302 37.368847 -21.914862 4294967295
890.20862 19.860144 104.9246 4294967295
892.5108 46.854324 99.725639 4294967295
861.32776 103.58075 36.32217 4294967295
895.63062 49.035381 14.80233 4294967295
890.0899 2.5226142 65.619263 4294967295
877.85638 47.900768 60.327496 4294967295
899.30225 15.151323 83.994576 4294967295
853.45532 68.580948 23.62332 4294967295
904.52301 54.549931 65.856857 4294967295
870.21002 12.715543 19.431376 4294967295
867.28534 42.401817 18.9587 4294967295
889.71136 66.288124 68.566612 4294967295
894.00995 48.981995 51.355179 4294967295
883.86896 39.761936 80.94487 4294967295
920.9184 34.541542 93.070984 4294967295
897.91797 42.027721 96.77282 4294967295
922.14917 13.532905 67.12912 4294967295
868.16437 7.7030931 98.264122 4294967295
890.68677 -60.108109 53.011059 4294967295
868.36816 57.035141 47.538345 4294967295
841.35364 84.803696 56.70787 4294967295
896.45068 31.623327 105.04268 4294967295
945.16724 30.484537 57.39497 4294967295
921.49091 12.166492 54.552696 4294967295
863.72076 60.431873 76.64061 4294967295
901.46912 912.3266 5.7897453 4294967295
931.74268 982.09039 -23.467413 4294967295
919.69617 922.71606 7.0669513 4294967295
872.1449 866.21417 -35.896584 4294967295
916.17383 999.06073 11.216145 4294967295
871.00513 1056.4603 -3.9434352 4294967295
862.83008 1051.0228 94.7351 4294967295
941.69153 1082.2706 41.151222 4294967295
862.07941 1155.0065 97.103882 4294967295
939.06506 1169.77 36.601871 4294967295
906.7876 1152.9044 97.932037 4294967295
915.50684 1144.8436 73.56282 4294967295
910.97125 1249.1532 115.92367 4294967295
939.58911 1264.5535 114.67519 4294967295
991.36517 943.55792 21.984291 4294967295
926.71277 881.56897 9.053278 4294967295
960.6615 1031.6885 74.271385 4294967295
898.60767 1067.8901 24.233528 4294967295
898.22705 1149.5276 90.726135 4294967295
928.21478 1178.7444 115.72155 4294967295
919.44714 1237.6265 102.18034 4294967295
933.88275 955.83447 8.3846807 4294967295
1005.3989 919.73425 33.03104 4294967295
947.44958 995.56171 60.496296 4294967295
987.52832 1067.8679 52.899998 4294967295
945.57532 1143.7893 131.78223 4294967295
891.42706 1178.6654 141.63498 4294967295
892.91431 1250.1064 124.0881 4294967295
1007.7902 951.89398 63.071419 4294967295
962.5047 911.48505 62.986195 4294967295
959.97876 976.77466 96.604507 4294967295
969.86658 1060.4114 48.470398 4294967295
970.79498 1150.9299 103.59571 4294967295
949.05414 1186.2899 148.98911 4294967295
864.66333 1246.1847 146.86234 4294967295
926.19989 934.70667 84.840523 4294967295
989.77856 908.9917 106.18832 4294967295
949.01965 1006.0616 80.486717 4294967295
998.95905 1094.3311 69.678238 4294967295
924.1474 1122.6433 106.68077 4294967295
924.87878 1207.9568 97.179764 4294967295
905.62921 1199.7745 142.92392 4294967295
989.83002 963.27252 130.05698 4294967295
1015.4119 927.50513 73.886597 4294967295
968.59924 1018.7689 81.219772 4294967295
947.88892 1096.4399 128.92647 4294967295
925.72064 1181.6865 120.47829 4294967295
860.70319 1176.2039 179.27899 4294967295
841.06909 1217.3362 189.25208 4294967295
943.89392 916.13226 146.97571 4294967295
1000.8179 845.21979 120.87109 4294967295
946.6355 990.3985 100.74718 4294967295
932.56653 1040.2827 137.96503 4294967295
988.09039 1143.2898 132.31996 4294967295
925.93469 1260.7405 169.70915 4294967295
932.1571 1249.068 181.45888 4294967295
922.17218 985.79901 90.220062 4294967295
984.62878 933.16711 139.21393 4294967295
930.84088 1008.4081 114.07053 4294967295
913.08081 1109.7318 142.46809 4294967295
898.40729 1152.5823 104.47048 4294967295
893.79071 1196.7712 156.5843 4294967295
881.97882 1267.0747 159.38065 4294967295
908.59985 935.97827 138.21953 4294967295
926.98285 894.72064 155.61061 4294967295
885.16498 1007.7353 173.79659 4294967295
944.57312 1052.4427 167.94362 4294967295
921.49884 1110.4366 85.220833 4294967295
942.27368 1192.5098 134.92561 4294967295
922.40564 1245.6459 161.15926 4294967295
873.09601 958.53674 183.03227 4294967295
915.36603 894.94501 198.13091 4294967295
904.70282 1005.1959 130.00095 4294967295
889.57214 1087.0981 170.66417 4294967295
917.29645 1113.1683 159.63625 4294967295
879.60522 1221.0228 176.10188 4294967295
928.60382 1233.6423 128.43333 4294967295
889.21411 86.611542 -29.741154 4294967295
881.4502 143.12306 -31.842245 4294967295
865.63043 53.985588 -2.3835368 4294967295
876.81439 204.45941 -5.6034679 4294967295
943.80487 178.72495 28.582617 4294967295
879.48462 252.18268 18.947338 4294967295
918.8313 244.83174 6.3672237 4294967295
914.94482 113.16666 2.6711371 4294967295
953.09735 143.84064 42.642796 4294967295
953.80786 251.67833 12.656438 4294967295
945.25659 120.67049 45.39003 4294967295
987.68591 162.04016 2.3123655 4294967295
961.14923 255.34787 25.467674 4294967295
976.46924 93.685013 21.673485 4294967295
957.32214 125.7048 69.896408 4294967295
991.40833 276.55399 53.487774 4294967295
943.54309 151.86021 84.956604 4294967295
1007.1785 151.68791 41.970165 4294967295
980.55951 244.7045 84.026482 4294967295
986.07306 79.000824 39.079235 4294967295
1016.5259 188.83498 51.873344 4294967295
989.81293 245.49298 88.268425 4294967295
958.60059 87.724304 90.026184 4294967295
943.86487 137.87695 113.98789 4294967295
985.7337 228.10503 131.39198 4294967295
931.0047 88.053497 113.81888 4294967295
921.85199 175.48161 121.55759 4294967295
919.28961 222.95224 125.39066 4294967295
898.66321 135.07433 138.46217 4294967295
993.11011 149.17033 98.96566 4294967295
926.72833 255.90344 185.55867 4294967295
886.75403 102.45309 141.54816 4294967295
903.09009 161.47594 134.74452 4294967295
886.01587 243.45384 151.71927 4294967295
891.83746 467.14786 9.8639526 4294967295
929.47052 479.74942 -16.37904 4294967295
936.90887 438.95291 -41.373779 4294967295
938.0108 397.53113 -76.987968 4294967295
882.29639 557.9527 -82.415382 4294967295
904.71832 587.23248 -28.999155 4294967295
944.51685 613.15436 -50.216923 4294967295
950.66498 578.12482 -37.339855 4294967295
892.19775 698.09741 -21.148514 4294967295
933.97113 648.50476 32.036583 4294967295
928.61493 716.09302 22.062967 4294967295
910.16321 768.44427 -25.940182 4294967295
937.01367 498.75012 0.53562421 4294967295
932.71124 443.36118 -6.5531087 4294967295
971.61932 525.9502 -25.000847 4294967295
996.93054 552.69983 -42.324722 4294967295
972.26825 643.27179 -14.516874 4294967295
958.69366 700.38458 43.886749 4294967295
979.8949 476.10089 -17.124712 4294967295
984.87366 394.15814 33.626892 4294967295
959.22723 539.61157 27.141806 4294967295
956.12195 608.8512 -0.42794654 4294967295
959.13843 633.55469 20.7241 4294967295
993.20349 758.89563 14.590089 4294967295
958.6925 470.63974 3.1074343 4294967295
968.50482 433.62274 100.07297 4294967295
928.93823 525.96045 30.442429 4294967295
998.83691 613.47473 51.589184 4294967295
984.0639 622.1886 18.756367 4294967295
997.67719 732.17499 32.942413 4294967295
926.91986 470.78793 60.283192 4294967295
960.05804 445.18988 81.154037 4294967295
992.08368 501.13016 61.054756 4294967295
961.11121 586.60394 70.372314 4294967295
961.60352 667.34308 118.108 4294967295
997.97388 684.7486 69.141777 4294967295
1026.91 516.42413 101.34006 4294967295
1022.3042 478.50769 80.585533 4294967295
956.16974 567.50061 70.353043 4294967295
970.3548 619.53564 87.235359 4294967295
961.18689 653.23743 69.833885 4294967295
992.7121 690.19165 135.17424 4294967295
970.6557 469.91647 165.66415 4294967295
973.44043 460.43665 133.82712 4294967295
990.21368 561.53223 93.596581 4294967295
955.03125 622.6991 96.415451 4294967295
932.73541 654.47943 127.12525 4294967295
926.67596 747.19525 93.784134 4294967295
977.41418 484.61505 129.20457 4294967295
940.03021 431.65271 157.2412 4294967295
947.66418 533.49829 113.98239 4294967295
917.87476 610.21277 161.42447 4294967295
937.44226 635.95526 165.03189 4294967295
954.24194 745.60645 129.7077 4294967295
909.91119 480.04083 111.07951 4294967295
946.74762 398.92642 141.91866 4294967295
914.0733 540.14868 139.67586 4294967295
906.16589 581.69672 126.78776 4294967295
937.11774 660.69287 169.42328 4294967295
952.50464 701.242 135.31378 4294967295
896.61469 464.40372 151.888 4294967295
904.55682 431.31351 144.55112 4294967295
863.89832 540.05463 150.36835 4294967295
910.97205 629.13702 132.38736 4294967295
849.41071 678.07562 133.27504 4294967295
867.69513 728.41174 163.03654 4294967295
880.82471 320.27344 -22.927858 4294967295
919.14172 297.31482 -43.315178 4294967295
952.67865 376.91113 -24.175709 4294967295
912.31708 351.36255 8.989954 4294967295
961.00873 281.49527 10.699838 4294967295
978.40546 375.58307 34.575714 4294967295
933.12238 296.18057 14.429392 4294967295
923.54425 418.50214 33.034161 4294967295
958.24469 326.86972 50.056744 4294967295
973.3775 330.58948 38.229435 4294967295
997.81299 337.04382 68.562065 4294967295
967.15387 364.37936 49.924999 4294967295
946.41687 328.64502 76.224503 4294967295
977.18951 349.85043 72.9291 4294967295
977.49628 255.7334 113.22903 4294967295
957.14233 334.5788 128.25276 4294967295
963.04254 289.51471 151.43236 4294967295
980.09027 357.29605 176.16171 4294967295
894.8175 334.39474 160.61452 4294967295
889.57806 329.25803 176.44836 4294967295
873.94238 277.17871 110.4976 4294967295
898.92743 369.1026 181.59361 4294967295
882.42096 763.64575 -25.01202 4294967295
929.35162 766.88367 -20.325722 4294967295
888.0094 859.95251 3.3079343 4294967295
898.54907 818.60785 -22.392214 4294967295
923.09845 762.29279 17.324057 4294967295
951.56348 827.89624 40.744617 4294967295
956.72284 753.97589 57.303394 4294967295
945.50885 847.54315 31.731384 4294967295
1023.7961 752.08856 34.136333 4294967295
1035.3768 816.49908 68.205101 4294967295
985.67645 754.50543 53.258755 4294967295
971.50665 859.40076 93.704941 4294967295
982.63245 765.23975 98.470818 4294967295
967.17181 801.18213 88.980942 4294967295
956.08936 786.06268 119.58412 4294967295
999.33972 794.96552 98.469658 4294967295
947.72156 797.62323 48.176006 4294967295
977.75446 847.82092 135.05287 4294967295
875.87109 784.06622 163.86926 4294967295
920.50366 858.95984 198.76077 4294967295
839.33386 783.12347 143.30371 4294967295
898.25238 839.94299 136.03442 4294967295
924.86316 1249.9718 131.20122 4294967295
908.2666 1275.6826 213.79323 4294967295
903.38281 1248.1058 179.90005 4294967295
884.53387 1212.842 138.92744 4294967295
879.04846 1303.5671 207.20923 4294967295
914.11072 1174.2605 179.51678 4294967295
885.2774 1242.7421 163.42493 4294967295
884.1991 1231.3977 202.6386 4294967295
865.82074 1207.4979 180.84895 4294967295
911.75885 1185.1967 146.61122 4294967295
911.9646 1186.1564 160.05815 4294967295
924.15198 1144.5818 188.79042 4294967295
877.91205 1187.0513 212.39259 4294967295
904.14435 1165.5338 177.38121 4294967295
920.18512 1190.4374 193.12883 4294967295
877.87848 1168.4287 182.68614 4294967295
846.28455 1188.965 138.97543 4294967295
913.62915 1117.8154 165.94865 4294967295
908.01465 1205.5259 221.67941 4294967295
899.51953 1116.9642 188.31116 4294967295
914.93903 1144.4192 166.62338 4294967295
881.30585 1073.8571 169.23373 4294967295
888.49707 1234.2709 240.47496 4294967295
898.47699 1227.4824 211.53645 4294967295
908.45941 1217.3688 195.12032 4294967295
908.86243 1215.2037 257.89517 4294967295
943.37347 1237.2933 210.10681 4294967295
903.96332 1222.6058 209.03041 4294967295
900.9715 1211.1179 200.78848 4294967295
912.3725 1218.1021 227.87057 4294967295
881.84351 1196.6913 191.71495 4294967295
917.5072 1217.0081 241.28008 4294967295
875.84094 1183.6438 227.15028 4294967295
917.84161 1305.6737 271.22021 4294967295
899.38879 1320.387 245.83559 4294967295
898.42535 1290.6013 220.08598 4294967295
871.39331 1302.3079 214.18346 4294967295
888.68616 1250.4891 246.55438 4294967295
867.06433 1207.317 283.81326 4294967295
917.21539 1301.2335 203.05595 4294967295
950.06268 1221.5485 211.87517 4294967295
896.73657 1257.8503 251.30685 4294967295
945.34833 1221.1791 265.77884 4294967295
881.39484 1225.8379 242.57243 4294967295
895.62952 1363.7994 262.84076 4294967295
905.17883 1307.6168 319.01868 4294967295
906.50391 1282.2787 290.84027 4294967295
927.93365 1303.7698 246.50258 4294967295
881.02393 1341.5439 284.84454 4294967295
919.6405 1370.3619 250.54274 4294967295
872.00159 1298.1647 265.23465 4294967295
940.09344 1312.9728 270.26633 4294967295
872.44928 1249.4656 249.81329 4294967295
935.94733 1306.7317 331.6424 4294967295
943.55127 1242.8009 255.80035 4294967295
1123.8905 1236.7023 191.50395 4294967295
1080.0833 1252.437 170.87338 4294967295
1114.646 1217.5062 155.20425 4294967295
1102.4744 1184.4698 154.64441 4294967295
1139.3749 1227.3976 165.78931 4294967295
1149.235 1220.1581 111.23865 4294967295
1129.9708 1186.6882 169.63881 4294967295
1090.8988 1263.9868 180.61624 4294967295
1109.3125 1247.0243 132.69453 4294967295
1099.072 1267.5607 198.00986 4294967295
1079.3553 1231.3162 217.60217 4294967295
1140.946 1264.0336 190.18324 4294967295
1112.8009 1261.1642 180.92435 4294967295
1105.8376 1179.957 156.25632 4294967295
1094.4047 1275.676 166.3139 4294967295
1093.5728 1303.0341 167.5537 4294967295
1139.6379 1259.0295 151.03839 4294967295
1064.7687 1259.4854 203.57835 4294967295
1053.5018 1265.1117 132.09468 4294967295
1123.1907 1259.433 172.79095 4294967295
1074.9724 1261.3899 152.53572 4294967295
1031.4851 1214.4272 124.23621 4294967295
1059.464 1173.4424 159.87737 4294967295
1050.3506 1221.6224 165.41258 4294967295
1046.191 1245.4353 185.11659 4294967295
1038.8444 1176.3182 166.94455 4294967295
1010.7907 1268.0087 180.96176 4294967295
1056.6326 1255.6093 197.84354 4294967295
1027.5695 1304.0579 182.8391 4294967295
1012.3988 1271.7812 151.70691 4294967295
1072.7806 1227.2927 187.34961 4294967295
1051.1458 1233.0997 160.6321 4294967295
980.68823 1164.5677 136.48358 4294967295
940.19891 1157.2229 154.34732 4294967295
974.59247 1147.8096 211.32089 4294967295
964.33472 1184.3225 229.4473 4294967295
961.90027 1192.1996 146.43333 4294967295
953.82684 1219.0642 167.22282 4294967295
964.8847 1217.0109 165.20532 4294967295
968.26257 1232.6829 144.38277 4294967295
951.28461 1241.7708 162.01678 4294967295
982.50543 1252.4906 147.72064 4294967295
937.90839 1246.6792 133.23785 4294967295
951.84979 1162.0988 136.25478 4294967295
939.61005 1148.7997 111.54153 4294967295
949.65814 1160.5305 159.29762 4294967295
970.41522 1166.8553 173.90373 4294967295
923.65112 1195.8607 201.83606 4294967295
917.5899 1198.8613 190.30515 4294967295
970.84875 1209.0225 172.16008 4294967295
958.09607 1194.1193 169.96024 4294967295
911.64008 1231.9896 144.35791 4294967295
866.83234 1233.4296 145.09639 4294967295
930.85632 1227.3483 133.6964 4294967295
1120.3584 1240.9761 166.73148 4294967295
1128.1405 1237.9897 198.81616 4294967295
1108.0913 1289.9658 173.66406 4294967295
1094.8988 1222.9127 133.06972 4294967295
1131.5574 1304.0587 167.24771 4294967295
1093.2889 1266.9946 163.8871 4294967295
1093.2318 1266.1665 153.4886 4294967295
1056.8136 1258.0244 199.13126 4294967295
1086.6235 1230.217 137.0173 4294967295
1104.7046 1262.8287 122.51257 4294967295
1033.7394 1200.9642 101.8663 4294967295
1069.1716 1191.4525 100.39175 4294967295
1060.6138 1220.9545 115.47211 4294967295
1059.0034 1203.5121 150.97044 4294967295
1070.501 1204.7373 175.58131 4294967295
1063.9507 1239.276 144.77408 4294967295
1083.9399 1247.5101 127.35131 4294967295
1000.2399 1187.3118 113.80505 4294967295
1012.6224 1273.0612 155.5621 4294967295
1000.4315 1212.1688 146.72882 4294967295
996.79736 1169.8464 164.23582 4294967295
989.0708 1208.3781 174.11627 4294967295
968.38745 1172.5504 134.20306 4294967295
1042.046 1225.859 212.01952 4294967295
943.19257 1207.1949 190.9765 4294967295
935.52142 1237.4948 155.64224 4294967295
959.62494 1236.8893 185.43596 4294967295
989.31561 1232.5472 164.73932 4294967295
964.22083 1144.0856 172.77026 4294967295
955.79401 1134.9926 133.40517 4294967295
903.89771 1139.08 152.09639 4294967295
895.56122 1161.6558 152.46597 4294967295
932.32831 1178.301 161.72104 4294967295
925.8053 1189.6505 166.13377 4294967295
910.91974 1204.0823 126.496 4294967295
919.11938 1226.7323 125.01914 4294967295
958.64856 1237.2695 136.12044 4294967295
1614.4524 666.53491 56.536053 4294967295
1632.9464 656.50818 44.991333 4294967295
1662.0365 623.36713 108.65596 4294967295
1661.7634 712.93445 64.898682 4294967295
1667.9171 658.27081 64.977592 4294967295
1655.3176 653.06158 82.1745 4294967295
1642.0681 682.48499 72.298492 4294967295
1630.4977 721.6676 47.07383 4294967295
1646.7782 633.50116 104.13203 4294967295
1696.0818 692.48212 39.504078 4294967295
1666.8469 693.49219 39.231014 4294967295
1678.1005 639.13794 52.754116 4294967295
1678.8109 641.6958 51.876698 4294967295
1685.2589 716.26508 25.760794 4294967295
1650.7706 676.29126 49.942932 4294967295
1678.0928 743.5705 16.679472 4294967295
1660.4491 691.42212 68.618896 4294967295
1623.2306 715.90448 71.826279 4294967295
1656.0433 701.05518 54.130428 4294967295
1665.413 672.97632 10.021901 4294967295
1650.1978 698.94568 63.145638 4294967295
1582.2576 647.91992 93.103844 4294967295
1616.5793 685.53699 96.536583 4294967295
1586.958 648.23535 54.464046 4294967295
1557.5012 629.43329 20.135609 4294967295
1587.6121 695.85217 39.542835 4294967295
1597.8746 714.70422 68.80201 4294967295
1552.8893 701.50037 23.80242 4294967295
1559.3634 688.78522 70.201164 4294967295
1613.7836 671.37299 61.003429 4294967295
1604.8796 703.26874 28.299212 4294967295
1558.6167 730.42084 79.069679 4294967295
1511.1194 652.59564 68.585358 4294967295
1532.4093 611.58856 51.424496 4294967295
1546.7466 662.79895 -3.6535919 4294967295
1525.3414 666.92371 44.008289 4294967295
1545.3616 640.0321 67.558884 4294967295
1524.4968 661.63605 34.816204 4294967295
1544.5039 695.93469 69.281075 4294967295
1535.6068 673.37592 45.011688 4294967295
1488.6075 711.19061 45.027683 4294967295
1506.833 698.90277 20.149052 4294967295
1511.2905 700.19849 23.931587 4294967295
1473.3347 596.61511 60.193214 4294967295
1490.3632 629.2558 5.7221112 4294967295
1439.1456 597.07281 35.707592 4294967295
1447.1954 619.32593 30.635477 4294967295
1472.4528 668.12372 52.480839 4294967295
1494.0668 646.81158 9.7870331 4294967295
1505.4905 689.12842 28.615196 4294967295
1485.1095 701.89264 52.641293 4294967295
1492.9102 691.38708 35.983498 4294967295
1490.4352 702.52411 58.494484 4294967295
1463.9247 684.17517 74.140312 4294967295
1380.9479 608.4234 27.7777 4294967295
1442.1298 602.91083 13.018034 4294967295
1412.3777 630.04785 55.283707 4294967295
1419.5436 615.02441 43.771343 4294967295
1454.512 582.48511 5.211658 4294967295
1430.0919 612.64789 26.894152 4294967295
1453.4149 647.94556 55.992294 4294967295
1438.2461 628.84052 78.92646 4294967295
1409.321 702.72125 27.517029 4294967295
1427.0192 698.49146 -2.6977136 4294967295
1412.3566 718.65234 40.245949 4294967295
1393.7885 607.90491 26.435757 4294967295
1321.0315 565.35577 106.34252 4294967295
1328.6866 579.60339 54.469879 4294967295
1389.3861 620.43213 43.215286 4294967295
1348.6006 614.50128 34.001583 4294967295
1340.0172 686.19611 64.808685 4294967295
1346.1978 658.47418 46.60173 4294967295
1340.6678 636.91608 52.823647 4294967295
1343.8628 674.80261 48.570412 4294967295
1368.542 698.31195 -4.9735208 4294967295
1318.7133 705.33923 -27.480972 4294967295
1261.6849 584.77771 51.357002 4294967295
1308.6401 521.45129 -2.2947443 4294967295
1308.3264 595.38098 43.251183 4294967295
1286.0089 582.44128 48.694096 4294967295
1244.5819 639.43292 24.36105 4294967295
1273.2683 651.35138 67.981682 4294967295
1273.1979 668.17651 77.273102 4294967295
1291.2262 688.44354 33.564289 4294967295
1327.2858 677.97742 55.597164 4294967295
1313.1327 694.77527 79.066551 4294967295
1221.8512 725.09967 14.427532 4294967295
1225.395 589.54272 44.322514 4294967295
1247.6107 518.76794 6.8837504 4294967295
1224.7507 582.90692 25.99898 4294967295
1214.5748 588.47644 29.117094 4294967295
1226.924 585.02496 59.024288 4294967295
1276.8033 585.47021 -0.024448289 4294967295
1260.8395 612.26532 25.709875 4294967295
1218.4989 669.04193 26.551439 4294967295
1273.84 673.4361 50.832424 4294967295
1290.8162 727.61353 73.115875 4294967295
1238.8092 669.91553 81.8647 4294967295
1194.8395 522.04065 51.992504 4294967295
1147.2977 545.17981 48.199337 4294967295
1160.1732 569.07928 -0.25538716 4294967295
1112.7725 555.52386 -1.4117519 4294967295
1177.6036 629.70618 58.768486 4294967295
1116.4509 616.43616 23.743929 4294967295
1162.7792 657.72815 67.501526 4294967295
1159.8065 602.88831 3.6303473 4294967295
1143.8892 650.26508 22.652014 4294967295
1159.233 724.93762 34.798256 4294967295
1175.3494 739.30688 37.466526 4294967295
1118.4039 487.41632 28.456841 4294967295
1123.6415 518.59875 41.884876 4294967295
1127.0812 514.63049 38.851139 4294967295
1074.2301 575.38037 24.528311 4294967295
1120.5824 556.60516 56.423527 4294967295
1150.8304 597.91809 54.470181 4294967295
1088.1982 620.07288 32.529274 4294967295
1129.7109 668.90118 33.924267 4294967295
1076.087 644.16559 31.607521 4294967295
1102.3319 708.30029 38.784603 4294967295
1083.6704 731.20068 5.4757752 4294967295
1038.4465 528.80157 7.6216965 4294967295
1059.4661 505.59103 15.873475 4294967295
1051.0673 530.84088 76.288391 4294967295
1067.2762 537.96582 10.933802 4294967295
1066.1196 561.68591 47.075157 4294967295
1030.8287 566.98157 63.391201 4294967295
1072.0366 660.41052 29.932863 4294967295
1080.3427 633.83838 52.873138 4294967295
1052.4565 647.06604 7.4556046 4294967295
1071.0798 669.16364 -8.4738407 4294967295
1102.7111 779.6897 -1.0237055 4294967295
1000.608 496.38776 36.082436 4294967295
996.31207 458.84247 19.464804 4294967295
1031.2295 520.27039 30.195845 4294967295
990.12946 567.59894 47.665462 4294967295
983.01044 555.76532 42.13625 4294967295
1029.8649 594.16516 78.714111 4294967295
1002.7893 593.53052 30.241831 4294967295
977.69556 620.0957 -11.336382 4294967295
973.60126 673.00867 21.755726 4294967295
1019.0797 690.29791 -7.0573025 4294967295
989.89771 752.25562 10.072823 4294967295
1703.2356 688.8396 43.074383 4294967295
1619.6425 672.12244 64.78997 4294967295
1661.6099 725.18805 35.853848 4294967295
1687.9307 703.73065 57.117752 4294967295
1622.0471 689.82959 90.024933 4294967295
1671.0294 704.97345 31.98167 4294967295
1633.4696 716.58112 77.398872 4294967295
1612.2377 707.33905 41.382896 4294967295
1669.1368 716.86639 70.422134 4294967295
1650.0798 691.28314 39.420712 4294967295
1599.9858 638.58167 15.24776 4294967295
1634.4933 656.12927 41.191956 4294967295
1578.3116 661.99176 62.475689 4294967295
1540.6211 672.35498 57.927113 4294967295
1597.6384 673.54285 85.835678 4294967295
1625.326 668.57227 33.80526 4294967295
1601.4208 677.96185 31.361479 4294967295
1572.2487 665.49042 66.668633 4294967295
1608.6748 640.88385 78.119408 4294967295
1607.0336 719.97998 77.754013 4294967295
1492.3241 607.98914 13.667631 4294967295
1531.0941 639.99469 57.763405 4294967295
1541.3613 632.71204 31.013254 4294967295
1526.2648 679.86749 45.202999 4294967295
1553.5435 632.72046 20.488415 4294967295
1578.9868 685.30548 38.309921 4294967295
1517.6086 719.11023 62.080338 4294967295
1506.4136 719.89673 69.460472 4294967295
1564.9342 739.9986 30.79232 4294967295
1482.7086 677.98315 4.2845359 4294967295
1453.7452 645.08136 36.039177 4294967295
1491.8866 624.55969 45.490143 4294967295
1494.2966 625.97003 -14.295725 4294967295
1439.8672 644.57947 -46.317852 4294967295
1463.8431 671.1933 7.5534835 4294967295
1460.2688 688.97363 11.791632 4294967295
1474.9216 717.43768 51.350071 4294967295
1453.2054 719.40753 50.96489 4294967295
1451.9891 717.02753 39.723591 4294967295
1373.2012 617.61377 35.467098 4294967295
1391.297 615.28552 38.606152 4294967295
1407.0673 637.69073 46.622631 4294967295
1390.4667 627.71704 46.825508 4294967295
1399.0801 640.36743 46.658257 4294967295
1427.6873 676.4281 -2.9063146 4294967295
1433.1821 679.6958 29.578295 4294967295
1392.5236 747.74561 50.468746 4294967295
1443.6266 688.88019 39.99963 4294967295
1446.8363 725.90051 25.630707 4294967295
1344.1422 579.21057 -34.938679 4294967295
1359.4453 630.29004 5.9421411 4294967295
1334.0085 625.48047 58.410957 4294967295
1351.2002 659.38928 22.311771 4294967295
1368.1985 653.38556 30.273394 4294967295
1347.0583 646.65796 12.353559 4294967295
1333.736 707.05182 14.959158 4294967295
1373.6775 651.89569 8.1235838 4294967295
1347.2675 682.1084 41.933071 4294967295
1375.7357 706.91046 30.908178 4294967295
1307.3689 591.13495 20.622663 4294967295
1286.9016 566.95404 35.842941 4294967295
1274.748 591.88428 25.304976 4294967295
1301.4883 632.63086 53.440426 4294967295
1317.5168 638.7052 30.927469 4294967295
1297.1653 639.6416 14.705592 4294967295
1317.8572 643.76141 34.27066 4294967295
1298.8064 662.34705 53.528084 4294967295
1312.6006 717.31213 22.734476 4294967295
1298.0939 732.73846 46.181854 4294967295
1229.3082 530.99756 17.367697 4294967295
1247.281 582.30988 32.215355 4294967295
1255.0139 603.42126 -2.6228182 4294967295
1245.9338 629.98242 -2.8015924 4294967295
1233.7927 647.55798 -44.311436 4294967295
1219.15 665.4101 37.946556 4294967295
1212.894 686.44012 -21.349174 4294967295
1240.8804 656.47705 -21.285364 4294967295
1189.2251 673.10168 27.805117 4294967295
1243.6304 710.33179 61.912605 4294967295
1141.2651 548.00879 -34.327881 4294967295
1146.5858 604.71527 38.878506 4294967295
1130.5712 557.3277 -1.3068535 4294967295
1188.351 567.02441 2.5008233 4294967295
1166.0476 628.80389 16.33695 4294967295
1227.3466 599.17957 -4.245225 4294967295
1194.2183 659.67035 55.336277 4294967295
1236.806 673.42487 9.9456081 4294967295
1176.4011 697.39874 -19.511494 4294967295
1158.8901 715.37402 3.4581985 4294967295
1096.4897 545.62976 11.095704 4294967295
1130.5861 550.64728 -63.158695 4294967295
1077.0615 543.47662 27.99077 4294967295
1126.2102 575.10474 14.524788 4294967295
1118.9081 565.34424 -14.571675 4294967295
1114.4518 632.32977 3.5167303 4294967295
1101.8506 709.19769 1.4877936 4294967295
1067.892 686.4632 6.1651201 4294967295
1115.8628 683.46033 44.537785 4294967295
1126.1913 728.26459 13.082298 4294967295
1059.0698 539.72955 50.367157 4294967295
1030.4817 534.55347 6.9689398 4294967295
1045.7106 541.11993 31.788198 4294967295
1046.1862 567.87305 23.30538 4294967295
1075.5223 565.38837 31.678211 4294967295
979.36017 593.43823 11.315988 4294967295
1043.6266 648.76617 7.5103092 4294967295
1096.6046 669.36713 -10.360292 4294967295
1060.1763 648.51978 40.729462 4294967295
1089.9612 761.11731 -37.77956 4294967295
971.44971 470.33206 7.9819512 4294967295
983.86273 546.23688 28.941511 4294967295
1016.0797 499.01285 -15.161966 4294967295
968.06573 546.01978 7.6647072 4294967295
969.76007 545.05115 27.712688 4294967295
1002.5353 596.44244 13.724365 4294967295
1044.78 623.26038 -3.9961159 4294967295
1020.5891 682.21948 14.40977 4294967295
993.06079 673.09174 -22.340372 4294967295
842.66144 923.83142 1.3808717 4294967295
893.17554 925.36249 -17.580305 4294967295
893.78455 1051.2109 39.265926 4294967295
865.83344 1084.5083 69.703445 4294967295
945.11957 1110.23 94.496452 4294967295
871.4574 1206.1777 134.89725 4294967295
857.81262 1254.0197 100.01571 4294967295
835.55536 927.03833 -43.525612 4294967295
833.38977 937.08484 19.681324 4294967295
869.58826 1014.5134 0.08650434 4294967295
873.98907 1097.5499 -15.400861 4294967295
883.49457 1162.6591 105.08339 4294967295
866.46802 1191.8584 72.512672 4294967295
885.33472 1195.5598 154.91223 4294967295
829.00684 852.797 -14.953077 4294967295
784.33282 969.49939 51.429386 4294967295
816.53607 958.97443 41.916912 4294967295
862.95532 1094.8304 135.50967 4294967295
857.97125 1134.7037 108.85535 4294967295
909.66022 1196.9003 87.743614 4294967295
896.56616 1213.5348 165.10379 4294967295
799.16846 896.35406 30.867887 4294967295
790.08844 964.96881 49.802345 4294967295
832.08997 996.70996 33.505962 4294967295
840.59088 1062.9573 45.420586 4294967295
842.67432 1086.0089 87.621643 4294967295
869.2594 1191.6937 93.515854 4294967295
885.13568 1235.5032 120.26514 4294967295
790.66602 838.99762 66.186073 4294967295
820.0462 943.18481 126.90144 4294967295
833.82953 1027.4845 110.6508 4294967295
830.67065 1113.823 21.251238 4294967295
834.24341 1139.0238 117.36153 4294967295
914.3443 1157.3242 160.63463 4294967295
883.64185 1185.92 110.91054 4294967295
779.50439 908.09015 78.893967 4294967295
838.84229 944.2262 107.32099 4294967295
803.60065 1056.8265 91.232536 4294967295
827.39618 1096.9312 146.9637 4294967295
830.98474 1118.0771 68.005745 4294967295
831.46167 1198.952 104.34326 4294967295
911.01685 1217.0277 153.36891 4294967295
844.88879 881.83643 92.276337 4294967295
815.85217 964.74585 132.73961 4294967295
886.23242 1014.9124 148.70564 4294967295
847.77673 1072.9426 149.24319 4294967295
873.23676 1196.0399 158.1199 4294967295
862.24402 1185.4108 170.26291 4294967295
847.67078 1264.4186 177.48378 4294967295
825.66095 894.42773 171.40251 4294967295
891.55035 974.48932 186.37302 4294967295
858.32935 1030.3218 144.13138 4294967295
876.43207 1064.9871 152.68007 4294967295
852.2439 1138.129 139.55444 4294967295
868.61743 1243.8716 146.97 4294967295
912.57733 1261.8097 155.41183 4294967295
883.28436 880.18024 173.42566 4294967295
886.79974 904.39008 149.68362 4294967295
851.84363 1015.2662 188.04277 4294967295
889.86841 1068.0695 141.25294 4294967295
866.91199 1124.6608 166.6422 4294967295
819.51764 1201.8171 129.55176 4294967295
893.19794 1245.9208 120.01958 4294967295
879.50238 23.013611 25.26009 4294967295
905.96576 108.67057 -43.055313 4294967295
882.75928 196.54189 -5.6930847 4294967295
862.06073 209.9669 1.4221561 4294967295
867.57001 126.65689 -18.57259 4294967295
906.68463 174.14253 -17.700069 4294967295
852.50928 253.62347 6.977448 4294967295
867.97449 109.81555 8.8255281 4294967295
832.51086 154.88477 10.603146 4294967295
845.75415 261.24042 20.731638 4294967295
832.53766 137.78999 33.080971 4294967295
824.01544 211.52336 10.453794 4294967295
807.23846 181.2516 -15.783263 4294967295
823.08868 88.204292 97.496376 4294967295
771.28271 195.07507 58.438358 4294967295
811.1615 249.33141 28.571007 4294967295
849.28253 134.5293 43.783329 4294967295
793.79425 188.19116 148.47414 4294967295
812.97229 203.06529 137.69026 4294967295
842.84119 129.06183 74.057976 4294967295
851.53729 164.57088 135.58308 4294967295
823.3916 250.27144 121.35786 4294967295
889.57062 72.130966 88.272346 4294967295
819.42108 193.4102 120.2774 4294967295
825.82782 231.55336 175.0811 4294967295
872.86249 150.59534 110.29974 4294967295
904.78192 177.0025 155.02165 4294967295
866.9494 248.9673 150.40404 4294967295
898.98389 413.14359 26.15062 4294967295
892.29596 488.25928 -52.548229 4294967295
833.52869 557.0578 -12.177467 4294967295
871.40344 561.29535 -8.6675234 4294967295
854.92303 653.97681 -22.169708 4294967295
863.16046 718.01459 -31.141356 4294967295
890.50128 399.29004 -16.460447 4294967295
829.97192 473.4043 12.508753 4294967295
815.89313 519.46246 -28.68391 4294967295
859.0274 667.65955 1.928851 4294967295
862.91858 641.81744 6.4280787 4294967295
881.52917 745.14392 21.310736 4294967295
803.29492 421.75024 58.230568 4294967295
783.10522 490.35614 21.037134 4294967295
842.10895 546.80304 -0.15430596 4294967295
786.15979 613.01251 50.379982 4294967295
795.49518 683.63818 8.4735346 4294967295
828.86639 700.40973 16.309671 4294967295
793.60992 443.60992 4.3456268 4294967295
826.57214 491.55429 42.718033 4294967295
848.65027 484.58594 34.910225 4294967295
833.50366 605.61896 61.898045 4294967295
814.8255 612.35944 47.381157 4294967295
813.40552 748.93689 -4.9996285 4294967295
822.48895 428.0369 62.664207 4294967295
830.06671 459.93274 73.191544 4294967295
790.70166 540.46643 95.344643 4294967295
791.86432 632.26013 72.841415 4294967295
760.34198 686.96021 66.771835 4294967295
843.29962 719.71204 75.122002 4294967295
811.10156 384.43018 43.183067 4294967295
796.03094 453.55951 37.414959 4294967295
854.4505 544.38556 124.49924 4294967295
811.40875 606.35303 72.331596 4294967295
813.133 667.78784 108.50026 4294967295
780.66205 698.91431 119.36362 4294967295
830.42242 357.20908 121.18926 4294967295
797.61786 467.86237 99.427979 4294967295
854.7619 529.86133 161.63329 4294967295
839.18951 642.48157 134.67696 4294967295
818.84564 625.32196 128.81897 4294967295
797.30005 711.88214 134.36696 4294967295
888.49927 386.91537 182.06323 4294967295
869.48865 510.25406 168.65428 4294967295
856.40417 503.72269 157.27383 4294967295
839.42889 526.58453 103.4 4294967295
893.9765 645.81049 102.52068 4294967295
872.9187 722.60938 143.80116 4294967295
817.6377 399.6438 173.11974 4294967295
831.7243 471.86356 154.56 4294967295
883.08667 546.83282 183.92873 4294967295
874.16595 599.52338 153.30191 4294967295
867.43988 642.98102 144.10022 4294967295
882.48798 691.4978 145.50073 4294967295
894.32062 315.46179 -26.27915 4294967295
882.30054 335.90051 -29.408092 4294967295
859.43591 251.41692 4.8591952 4294967295
836.14795 335.03207 1.2347295 4294967295
855.83173 312.21301 54.579288 4294967295
810.80334 376.14291 27.761707 4294967295
846.39709 284.20422 67.870819 4294967295
789.35736 274.58649 5.5604653 4294967295
798.755 282.99655 86.331284 4294967295
823.1568 387.39487 78.223053 4294967295
798.68518 287.72934 124.26801 4294967295
808.16028 362.38174 102.53823 4294967295
822.4552 313.45349 97.742599 4294967295
811.72144 348.74353 95.624741 4294967295
827.8512 297.57535 127.46683 4294967295
838.48383 333.01901 165.69258 4294967295
826.25806 303.21741 176.27165 4294967295
882.0271 359.62051 122.83691 4294967295
826.27179 767.39819 -36.89835 4294967295
827.94226 843.30682 23.06587 4294967295
870.03302 764.64557 -28.839571 4294967295
863.98743 838.48602 -13.569107 4294967295
825.32037 735.10632 22.142183 4294967295
832.80511 827.5127 28.90575 4294967295
864.30499 792.58875 21.436464 4294967295
845.93457 847.37097 20.788803 4294967295
795.48212 758.073 52.644749 4294967295
791.82306 860.1554 87.757195 4294967295
791.38928 794.37097 103.55154 4294967295
867.20709 866.96509 110.1886 4294967295
827.58466 800.60919 116.52425 4294967295
865.50232 834.38208 113.58459 4294967295
810.38458 749.92169 138.53481 4294967295
858.79938 827.43591 136.59802 4294967295
917.8103 785.34094 174.84032 4294967295
846.29559 863.20447 171.78122 4294967295
925.66107 1189.5334 127.08927 4294967295
886.51862 1223.5417 191.49107 4294967295
920.58093 1255.6881 197.55067 4294967295
883.59845 1224.4916 139.81552 4294967295
892.03497 1249.1322 184.13029 4294967295
852.55389 1229.5405 169.39857 4294967295
898.59833 1186.4219 132.14558 4294967295
913.39557 1182.1692 214.78194 4294967295
891.71716 1175.0918 134.35262 4294967295
903.69336 1234.1328 196.69823 4294967295
858.21539 1193.9238 154.88022 4294967295
883.70544 1194.0858 214.68681 4294967295
896.42908 1126.6721 160.22824 4294967295
880.02679 1209.0925 149.91956 4294967295
895.81909 1130.9149 105.39966 4294967295
863.87549 1192.9564 217.49931 4294967295
899.10059 1128.3827 174.99219 4294967295
822.55206 1169.4875 206.10347 4294967295
829.85852 1108.9219 167.26642 4294967295
945.56171 1204.7548 247.86664 4294967295
923.19849 1110.7218 103.06405 4294967295
896.21606 1182.1086 179.15182 4294967295
904.09363 1251.4419 231.51845 4294967295
934.37177 1245.7654 240.84097 4294967295
893.43683 1295.4191 194.53468 4294967295
904.76166 1257.4664 245.22385 4294967295
907.2381 1235.9493 211.45578 4294967295
866.16058 1244.3326 234.16443 4294967295
889.75238 1234.7085 199.26604 4294967295
875.27582 1235.6982 226.08923 4294967295
948.57581 1201.8677 233.15659 4294967295
875.62866 1227.0886 244.79996 4294967295
916.98358 1179.776 230.03522 4294967295
898.47156 1292.54 269.98239 4294967295
907.32178 1286.4714 235.54602 4294967295
901.82092 1323.7108 230.39453 4294967295
897.81427 1292.1138 249.68991 4294967295
919.02338 1258.2522 249.76466 4294967295
893.88 1228.266 240.83133 4294967295
917.68695 1223.6277 252.31364 4294967295
882.70251 1284.1781 231.67326 4294967295
894.03882 1215.0559 267.39215 4294967295
899.93524 1264.3219 284.98834 4294967295
890.45953 1247.5933 219.95357 4294967295
891.25739 1308.0088 265.16791 4294967295
897.11469 1327.3313 256.8468 4294967295
859.83618 1361.2478 280.23663 4294967295
881.02246 1296.5029 249.66528 4294967295
921.56329 1297.8739 278.40634 4294967295
885.50818 1294.874 297.71832 4294967295
919.16815 1289.2052 311.53262 4294967295
909.99042 1311.2603 254.85133 4294967295
872.19012 1254.0089 288.22687 4294967295
867.53955 1262.1453 250.69373 4294967295
929.09601 1246.0978 298.34067 4294967295
691.37555 1221.0909 165.48909 4294967295
723.18561 1211.704 187.55553 4294967295
651.3667 1203.3997 151.10521 4294967295
719.84644 1200.8041 131.58063 4294967295
660.61462 1236.4503 141.24757 4294967295
741.9613 1191.6095 109.41765 4294967295
661.44012 1238.0393 186.30067 4294967295
729.11328 1268.3889 179.56836 4294967295
673.8371 1239.5729 190.5519 4294967295
672.70618 1222.0477 242.86183 4294967295
701.65613 1240.097 166.82793 4294967295
720.68829 1289.1445 159.73203 4294967295
706.93018 1283.5238 159.62857 4294967295
689.50977 1305.1533 144.52121 4294967295
701.82617 1274.1737 155.31525 4294967295
706.17169 1274.2299 158.99879 4294967295
699.51587 1302.6217 188.06613 4294967295
714.61584 1286.4594 200.791 4294967295
655.86731 1270.7839 156.5808 4294967295
717.52637 1287.3361 175.00999 4294967295
679.27625 1286.0516 185.57884 4294967295
765.17639 1177.0243 151.77216 4294967295
763.54376 1188.1797 107.51395 4294967295
755.73328 1180.4275 154.12669 4294967295
753.46698 1227.938 183.77019 4294967295
761.65173 1248.3925 126.65576 4294967295
765.03723 1164.2979 152.20972 4294967295
761.1239 1237.9363 120.37579 4294967295
755.04742 1223.3148 155.5092 4294967295
748.98865 1234.8339 164.08289 4294967295
757.74127 1243.5093 185.21486 4294967295
765.38385 1266.2614 169.44806 4294967295
802.32208 1173.9563 196.54335 4294967295
775.61279 1150.9171 147.51823 4294967295
807.26355 1192.9452 178.9436 4294967295
788.23132 1245.8765 149.25903 4294967295
842.67084 1159.0515 189.37991 4294967295
784.22943 1207.2056 156.38194 4294967295
784.24835 1226.2224 111.35653 4294967295
852.80811 1226.0862 123.04256 4294967295
797.67413 1222.5502 150.71936 4294967295
789.38147 1240.8326 185.58792 4294967295
786.95898 1306.0326 143.44833 4294967295
890.2652 1117.371 134.07364 4294967295
828.81659 1144.3988 184.49532 4294967295
805.42236 1191.4955 193.98601 4294967295
874.48785 1202.0469 105.01244 4294967295
879.67072 1192.4207 105.94732 4294967295
784.50159 1178.0598 157.067 4294967295
871.86896 1174.1562 173.12192 4294967295
872.39014 1197.484 175.99432 4294967295
884.18024 1228.5509 117.55888 4294967295
879.83325 1285.0021 173.88046 4294967295
874.06891 1252.949 169.81766 4294967295
674.79517 1198.9915 150.69885 4294967295
705.09247 1202.5844 175.35509 4294967295
670.66071 1239.7562 183.41853 4294967295
648.44409 1209.7897 202.58614 4294967295
669.4599 1241.6366 165.80992 4294967295
683.35785 1250.9445 155.38226 4294967295
706.83588 1246.2756 200.67497 4294967295
687.27612 1273.5441 163.42644 4294967295
720.08685 1259.759 168.99988 4294967295
722.34576 1237.9928 162.95703 4294967295
732.56616 1204.2241 171.69093 4294967295
797.30347 1233.2594 179.01894 4294967295
784.7337 1222.4808 134.08578 4294967295
760.74402 1240.4281 148.396 4294967295
725.49823 1196.8147 202.39853 4294967295
780.74359 1240.7701 176.33173 4294967295
759.1864 1220.6713 139.2099 4294967295
763.38715 1222.8909 166.8228 4294967295
768.71405 1303.3516 149.16214 4294967295
774.55951 1117.8988 111.28519 4294967295
855.38062 1191.8721 152.92632 4294967295
813.0625 1213.0962 141.93091 4294967295
808.99438 1235.153 188.71637 4294967295
825.93848 1198.5005 139.16508 4294967295
802.6684 1202.0531 145.0117 4294967295
771.22803 1243.8112 154.44113 4294967295
830.84912 1196.0107 160.21434 4294967295
812.83698 1256.136 152.25172 4294967295
835.79181 1184.593 161.55354 4294967295
864.68329 1163.5079 86.608238 4294967295
837.47339 1123.4432 157.50293 4294967295
851.44153 1189.6787 116.17944 4294967295
871.87378 1175.505 157.17493 4294967295
840.75696 1150.287 150.71425 4294967295
868.40051 1210.9124 109.83039 4294967295
826.56042 1221.4919 116.19575 4294967295
874.01447 1264.5934 170.2583 4294967295
160.01358 665.43079 49.050053 4294967295
152.01201 596.11066 54.254818 4294967295
115.78844 644.67169 107.9865 4294967295
88.081009 697.7038 67.42878 4294967295
124.285 679.00879 99.659126 4294967295
154.55713 659.9682 105.67613 4294967295
160.12138 679.88013 78.85881 4294967295
179.23581 697.09851 30.167913 4294967295
189.91536 654.3479 86.082298 4294967295
101.74622 667.51001 69.46669 4294967295
85.465912 705.44427 71.033104 4294967295
99.465546 721.46338 72.86972 4294967295
123.13333 636.3175 64.061562 4294967295
110.99713 696.4729 55.620911 4294967295
138.0249 659.21936 70.701164 4294967295
124.74362 673.54102 59.643219 4294967295
147.44586 716.36176 80.724144 4294967295
181.25691 736.51367 18.24728 4294967295
131.24356 635.27075 43.939289 4294967295
149.68068 708.51428 51.726669 4294967295
127.01234 779.78186 64.988403 4294967295
194.54146 642.98901 44.867599 4294967295
216.21664 629.18677 30.760534 4294967295
167.28423 620.96674 41.049648 4294967295
207.07751 626.3208 23.827955 4294967295
205.42534 642.17236 42.481274 4294967295
192.59053 656.91766 58.80862 4294967295
162.0546 715.36176 88.10746 4294967295
187.93895 693.52466 65.43914 4294967295
183.49471 675.46857 35.449589 4294967295
167.38135 727.51923 63.824482 4294967295
220.63725 716.7605 -0.66930246 4294967295
240.14853 608.10217 89.621208 4294967295
269.06589 616.26105 28.624397 4294967295
287.45447 652.48608 27.294699 4294967295
247.40729 666.44379 60.822067 4294967295
249.41226 681.90649 79.611992 4294967295
275.89642 703.55206 36.880917 4294967295
281.80008 646.24927 42.558769 4294967295
260.03223 679.21582 88.318024 4294967295
267.87039 703.7793 37.977211 4294967295
261.21384 701.64648 27.65699 4294967295
262.62823 692.21075 47.022453 4294967295
294.62662 676.00299 61.981735 4294967295
324.95032 586.45264 23.482523 4294967295
339.91476 637.15149 53.730103 4294967295
325.93054 638.84998 62.757404 4294967295
328.51501 675.4519 71.093246 4294967295
304.17154 608.45459 36.990208 4294967295
263.76389 626.62952 71.491295 4294967295
349.43637 647.26526 64.028641 4294967295
324.31033 679.25757 53.766724 4294967295
337.10062 726.81128 19.477627 4294967295
323.42953 743.53613 72.99791 4294967295
423.02728 570.02295 39.886951 4294967295
416.4086 624.23602 32.080261 4294967295
356.68854 652.26727 43.741852 4294967295
385.38403 674.54114 47.402939 4294967295
391.86081 623.38544 52.858418 4294967295
386.32153 681.50574 68.446259 4294967295
419.10013 640.17413 24.042349 4294967295
407.25772 673.02502 53.113373 4294967295
407.18582 700.94604 -11.908218 4294967295
368.48911 668.32941 39.394943 4294967295
393.70627 757.8299 16.293982 4294967295
477.71255 562.46448 49.548161 4294967295
422.96066 594.10223 86.55143 4294967295
450.98077 586.21405 42.8941 4294967295
443.13382 658.71722 68.199829 4294967295
436.38278 656.86719 120.73713 4294967295
486.3121 643.92993 43.759369 4294967295
430.49063 661.87762 30.275852 4294967295
426.4668 698.07263 51.614243 4294967295
444.44778 700.46173 68.981804 4294967295
435.84769 690.14044 56.46056 4294967295
456.39551 741.27338 16.610741 4294967295
493.70132 565.9234 31.293579 4294967295
517.9433 615.94641 32.404369 4294967295
530.55066 568.57947 55.779888 4294967295
505.05408 549.17932 33.507366 4294967295
507.25226 617.09723 47.898533 4294967295
553.31464 661.27496 21.324232 4294967295
514.29926 611.73029 53.997002 4294967295
500.00092 692.77222 51.180305 4294967295
538.18695 684.42389 1.9794985 4294967295
490.45969 689.57629 -3.5939953 4294967295
485.29739 710.17694 22.166603 4294967295
606.64276 504.20862 39.824188 4294967295
554.07239 560.43091 25.102549 4294967295
545.55731 566.98114 8.2673874 4294967295
540.63226 529.69495 48.348537 4294967295
592.77075 617.34613 67.683708 4294967295
585.15619 672.98303 28.96175 4294967295
543.32819 633.02631 38.721355 4294967295
581.33496 654.56317 62.067577 4294967295
564.61469 671.51373 60.669003 4294967295
580.15881 668.41699 58.969425 4294967295
565.20715 667.84979 20.139906 4294967295
609.12262 532.08118 69.752861 4294967295
535.03125 518.35962 57.278107 4294967295
642.09937 542.39343 65.004547 4294967295
601.37628 620.86011 5.0129929 4294967295
618.13177 576.00757 25.736971 4294967295
641.20026 628.77063 0.57118285 4294967295
645.34302 612.90613 46.586258 4294967295
586.95605 663.07556 42.184944 4294967295
653.82874 704.63544 35.624794 4294967295
656.95038 680.13562 12.518787 4294967295
647.10315 722.52771 29.13442 4294967295
683.24463 508.806 20.836248 4294967295
695.1748 495.58444 76.52906 4294967295
675.62335 527.42242 15.987621 4294967295
708.30737 549.49451 92.912949 4294967295
713.33923 582.1192 87.354836 4294967295
691.83289 655.50507 75.351601 4294967295
737.42798 680.25989 66.849197 4294967295
704.73035 645.12207 51.588718 4294967295
642.1319 648.82306 47.66703 4294967295
703.17804 720.8252 31.397806 4294967295
667.01196 711.78497 22.860275 4294967295
777.15149 485.92548 59.887131 4294967295
738.75146 496.17252 19.210695 4294967295
747.17847 557.82898 39.830475 4294967295
741.74713 555.66895 74.949043 4294967295
778.4212 565.27246 40.087246 4294967295
708.99805 628.29541 37.241741 4294967295
714.07001 594.55878 69.327026 4294967295
747.81219 629.73981 69.382942 4294967295
709.66376 642.27252 81.266319 4294967295
713.65253 688.47717 -5.429811 4294967295
694.35663 733.02777 13.195093 4294967295
795.80182 443.99844 9.4509258 4294967295
749.58728 450.73145 1.5815892 4294967295
814.38922 505.96689 43.899605 4294967295
795.16577 520.66589 45.722828 4294967295
810.89124 528.52338 67.23555 4294967295
791.22351 610.80255 8.2591677 4294967295
797.18182 589.11694 11.005086 4294967295
831.03345 620.16882 44.658154 4294967295
832.13385 599.92834 45.149372 4294967295
840.64087 742.34845 1.9805515 4294967295
745.93176 728.21613 11.549509 4294967295
147.1357 651.46356 94.719353 4294967295
109.02571 670.28967 111.08371 4294967295
158.50896 645.90887 50.080845 4294967295
113.8213 660.31958 53.728909 4294967295
165.73848 674.38672 42.931469 4294967295
157.34706 698.79755 59.344463 4294967295
202.32932 674.31671 43.352932 4294967295
127.1326 722.22919 102.88845 4294967295
100.80308 713.98657 55.152973 4294967295
151.63301 768.87933 9.2190943 4294967295
222.58122 654.52399 68.637497 4294967295
207.17201 638.97467 114.11881 4294967295
227.21935 679.99548 17.562283 4294967295
167.79073 648.22992 28.622068 4294967295
200.07794 653.88312 64.909203 4294967295
180.84438 729.57898 29.448633 4294967295
151.10913 707.2467 37.271816 4294967295
181.82574 744.97858 102.24167 4294967295
209.15092 729.30304 58.702095 4294967295
191.37968 723.43494 42.729034 4294967295
233.66545 633.92908 -8.7453537 4294967295
266.16412 649.72217 5.1948342 4294967295
