# .PCD v0.7 - Point Cloud Data file format
VERSION 0.7
FIELDS x y z rgba
SIZE 4 4 4 4
TYPE F F F U
COUNT 1 1 1 1
WIDTH 1121
HEIGHT 1
VIEWPOINT 0 0 0 1 0 0 0
POINTS 1121
DATA ascii
-56.618729 -104.7246 -325.62454 4294967295
11.622816 -113.58312 -372.17419 4294967295
-49.187313 -112.1377 -364.3201 4294967295
1.031958 -188.88725 -364.15518 4294967295
-43.454731 -186.76753 -356.10092 4294967295
-44.789204 -217.80637 -369.03714 4294967295
-65.081978 -282.41245 -356.59225 4294967295
1.5974594 -287.6723 -385.73694 4294967295
-62.63728 -318.85092 -344.75082 4294967295
-30.971836 -364.96289 -352.60486 4294967295
-65.280701 -373.98911 -352.74518 4294967295
-59.88689 -449.47443 -378.22952 4294967295
-14.185446 -490.50739 -347.34662 4294967295
-72.522247 -479.28143 -318.5914 4294967295
1.6375273 -490.66238 -299.70917 4294967295
-66.151184 -520.83917 -322.40286 4294967295
-33.809334 -557.22021 -324.15625 4294967295
-59.262276 -521.06091 -311.35474 4294967295
-10.048734 -541.59808 -249.59624 4294967295
-66.938988 -554.31158 -274.2692 4294967295
-114.31196 -80.059166 -329.26007 4294967295
-85.373199 -134.7074 -333.96057 4294967295
-95.096214 -159.92314 -352.69958 4294967295
-126.17393 -219.88248 -320.98428 4294967295
-120.41236 -258.58084 -327.26019 4294967295
-110.64342 -320.05728 -335.54031 4294967295
-102.95904 -356.84607 -371.58209 4294967295
-114.67113 -415.09357 -343.66855 4294967295
-101.45406 -491.51617 -313.71683 4294967295
-107.58989 -519.33215 -315.71036 4294967295
-86.80368 -522.18237 -275.95068 4294967295
-78.420288 -569.77344 -251.28848 4294967295
-163.21544 -69.291809 -323.78336 4294967295
-151.4782 -121.69595 -337.74844 4294967295
-151.17166 -166.1051 -334.43024 4294967295
-141.61513 -242.94092 -311.95291 4294967295
-132.56007 -258.57291 -342.08411 4294967295
-163.69864 -331.68872 -327.99161 4294967295
-156.8737 -381.89005 -331.90439 4294967295
-137.83534 -414.27158 -314.3887 4294967295
-116.41792 -487.28284 -325.08871 4294967295
-101.72769 -501.55994 -298.32629 4294967295
-100.8643 -522.0484 -264.35956 4294967295
-79.095512 -560.45294 -243.24303 4294967295
-148.55086 -78.781204 -279.74561 4294967295
-166.58017 -135.70151 -269.0564 4294967295
-183.17323 -155.43234 -298.71973 4294967295
-147.77817 -223.84607 -304.41483 4294967295
-166.74438 -262.3223 -283.37811 4294967295
-158.05383 -320.42636 -291.41678 4294967295
-132.48885 -404.49493 -314.90607 4294967295
-141.28181 -449.00906 -299.49774 4294967295
-122.59705 -487.93802 -273.94803 4294967295
-125.49033 -537.86871 -247.15685 4294967295
-128.89339 -525.10168 -259.06726 4294967295
-105.92049 -555.84955 -252.43661 4294967295
-136.88606 -414.46161 -122.72921 4294967295
-97.109955 -499.62347 -113.40837 4294967295
-143.13812 -489.75754 -62.218369 4294967295
-13.915852 -650.90594 -157.13321 4294967295
22.503813 -637.08429 -158.13515 4294967295
-85.908783 -560.52081 -156.55821 4294967295
6.3222594 -648.52917 -118.98738 4294967295
10.030474 -673.3761 -158.13708 4294967295
6.7125773 -679.87555 -114.22381 4294967295
12.318803 -644.83643 -122.57645 4294967295
27.126457 -634.69836 -173.85507 4294967295
20.801031 -5.621892 -352.46771 4294967295
28.334164 4.1149035 -344.71014 4294967295
23.250002 -25.599407 -381.62711 4294967295
23.061729 1.4709326 -313.11087 4294967295
86.909409 -15.422122 -310.92612 4294967295
62.056458 9.5874348 -348.31244 4294967295
119.51798 7.5538793 -299.31232 4294967295
79.213974 8.5152855 -265.19556 4294967295
148.69667 11.582397 -290.04636 4294967295
61.93132 -3.7575755 -275.27664 4294967295
25.945612 -2.7179337 -259.51816 4294967295
-1.3311654 6.4518523 -262.02881 4294967295
9.2969847 15.906893 -247.41379 4294967295
99.876183 -17.395168 -265.86813 4294967295
147.23541 1.960914 -260.44077 4294967295
20.106279 -4.7973609 -207.36748 4294967295
10.214378 -17.030979 -189.85063 4294967295
75.124603 -26.925522 -224.80243 4294967295
97.650597 -20.953468 -221.23975 4294967295
90.999443 3.0521557 -219.21411 4294967295
163.03593 -4.3365459 -202.9073 4294967295
90.262779 -603.31805 -159.28319 4294967295
24.526934 -648.14709 -154.039 4294967295
32.746281 -599.07281 -188.52759 4294967295
41.685707 -579.75848 -183.16675 4294967295
50.928135 -652.41504 -190.71629 4294967295
-15.414915 -670.11609 -197.29771 4294967295
80.06649 -607.04431 -167.40961 4294967295
34.331333 -587.88013 -205.05603 4294967295
95.488464 -586.4201 -164.41464 4294967295
87.877014 -613.15204 -211.59561 4294967295
86.781448 -587.63599 -194.93709 4294967295
104.37879 -567.95764 -178.04907 4294967295
52.847122 -627.35645 -141.05678 4294967295
22.804184 -677.42957 -141.21298 4294967295
87.980255 -611.31458 -149.65852 4294967295
108.71805 -619.75769 -159.61345 4294967295
88.722061 -558.43939 -191.36699 4294967295
122.67549 -592.07733 -167.5584 4294967295
138.36531 -567.21857 -157.16731 4294967295
106.99801 -576.62488 -167.45706 4294967295
124.69962 -556.77612 -157.59608 4294967295
98.022285 -594.74225 -156.67523 4294967295
87.802155 -589.67322 -151.56146 4294967295
94.641289 -565.66901 -166.52002 4294967295
67.534164 -599.96729 -172.62123 4294967295
89.713295 -542.69598 -138.07643 4294967295
104.73837 -560.50989 -114.60255 4294967295
128.14775 -538.39911 -119.1235 4294967295
111.76679 -528.24603 -98.047623 4294967295
58.39576 -599.2049 -133.8981 4294967295
97.495895 -568.83289 -157.41338 4294967295
72.946335 -607.37177 -143.11682 4294967295
70.477058 -626.70239 -167.75394 4294967295
47.795734 -632.67322 -172.87267 4294967295
79.337463 -597.75037 -163.99739 4294967295
42.089771 -632.20831 -138.36015 4294967295
54.13195 -587.50916 -162.37578 4294967295
43.224873 -609.17859 -164.97946 4294967295
73.464073 -540.72565 -146.24893 4294967295
118.73847 -546.40186 -210.76492 4294967295
146.46809 -531.98193 -169.83928 4294967295
144.17976 -534.60028 -231.64931 4294967295
124.27354 -526.8916 -231.1792 4294967295
139.66695 -494.59042 -242.1147 4294967295
163.76202 -495.40347 -227.61722 4294967295
159.91083 -399.36823 -253.29512 4294967295
186.64636 -406.42966 -219.69347 4294967295
127.58749 -469.81253 -206.4062 4294967295
157.47092 -443.39917 -258.20432 4294967295
184.60844 -353.46823 -249.95447 4294967295
141.26932 -365.56848 -191.03728 4294967295
177.80368 -303.01917 -265.50858 4294967295
150.1158 -299.60611 -199.21388 4294967295
136.93965 -293.14215 -221.17183 4294967295
178.56314 -265.33636 -243.21591 4294967295
160.35692 -288.69498 -222.76265 4294967295
165.85652 -262.05319 -233.22722 4294967295
193.76701 -227.46802 -256.39612 4294967295
152.31702 -236.17453 -204.08678 4294967295
128.0197 -218.53084 -206.96049 4294967295
170.08904 -159.15811 -229.76625 4294967295
180.39865 -166.746 -222.0574 4294967295
170.13248 -125.90549 -263.22101 4294967295
143.79417 -137.99275 -203.3378 4294967295
171.69391 -117.72069 -236.06602 4294967295
161.29614 -74.881203 -197.33957 4294967295
98.294487 -551.16394 -195.54909 4294967295
122.36948 -534.21277 -147.53827 4294967295
135.99783 -524.94995 -184.98984 4294967295
124.40788 -496.64853 -153.4416 4294967295
141.97112 -527.73914 -142.94409 4294967295
154.57806 -523.96393 -134.04753 4294967295
132.47519 -473.90826 -166.4944 4294967295
117.77119 -474.96594 -139.41518 4294967295
165.15555 -449.63702 -186.16272 4294967295
105.79121 -492.31949 -161.44621 4294967295
124.02718 -466.77618 -136.87543 4294967295
142.84395 -485.4108 -118.82129 4294967295
162.35103 -448.2468 -206.69466 4294967295
122.1093 -443.4617 -185.27444 4294967295
134.91692 -452.97485 -153.33917 4294967295
138.96725 -448.66721 -192.19937 4294967295
140.44899 -406.91617 -128.19571 4294967295
135.96324 -412.09308 -169.80478 4294967295
126.02348 -409.14673 -136.19975 4294967295
126.09274 -360.95078 -175.70695 4294967295
131.44717 -369.61371 -155.23009 4294967295
144.05534 -317.42395 -149.99835 4294967295
122.56599 -330.87576 -132.49799 4294967295
126.90403 -376.55215 -133.04269 4294967295
160.13739 -316.15115 -198.77344 4294967295
163.43427 -310.15631 -179.95778 4294967295
139.03912 -260.87405 -168.07289 4294967295
169.70097 -281.91251 -174.88554 4294967295
171.62675 -229.42648 -183.82808 4294967295
146.0043 -264.21765 -215.52907 4294967295
155.18616 -193.77617 -189.88571 4294967295
139.92413 -215.79391 -158.0527 4294967295
147.01811 -192.80582 -162.00371 4294967295
145.29912 -247.22807 -140.22731 4294967295
130.26199 -242.27324 -139.26262 4294967295
118.62156 -186.14871 -136.04239 4294967295
144.63651 -222.72757 -93.147736 4294967295
145.25049 -167.90996 -171.29753 4294967295
157.8364 -162.32794 -160.63661 4294967295
149.73132 -135.45003 -160.91518 4294967295
142.51595 -131.80035 -168.15842 4294967295
130.72983 -135.16966 -156.45215 4294967295
142.40594 -106.43987 -139.89302 4294967295
154.11107 -76.661163 -171.67865 4294967295
136.44417 -85.261932 -164.59732 4294967295
141.2453 -172.45976 -112.26047 4294967295
129.8148 -183.08618 -101.51991 4294967295
139.9633 -159.27933 -104.6999 4294967295
129.38728 -114.86912 -106.99595 4294967295
124.10994 -162.51025 -119.6048 4294967295
135.97362 -95.495285 -93.387367 4294967295
138.39635 -130.58365 -90.987137 4294967295
128.58525 -110.24615 -76.625397 4294967295
126.8006 -86.836403 -155.61028 4294967295
118.01496 -100.96714 -107.12909 4294967295
109.24039 -63.16795 -83.089508 4294967295
123.05321 -121.16277 -65.692299 4294967295
88.497055 -29.712484 -55.234032 4294967295
118.69817 -21.153753 -12.193616 4294967295
98.498055 -22.06731 -49.196167 4294967295
107.69447 -78.143044 -12.509998 4294967295
63.093891 -17.296696 -22.018253 4294967295
110.07858 -123.60875 -33.714985 4294967295
110.17152 21.545338 -14.237089 4294967295
141.86987 -4.391829 -19.414005 4294967295
120.17093 18.587137 -7.6747122 4294967295
146.99057 17.03204 -62.685078 4294967295
85.699928 24.791544 -27.276056 4294967295
74.892387 9.2063608 -13.474311 4294967295
42.622616 46.344475 30.642761 4294967295
61.82336 19.959768 -11.205313 4294967295
10.705632 26.99688 65.881218 4294967295
40.174122 14.440355 57.354713 4294967295
17.387001 16.984739 48.521011 4294967295
14.713169 25.361078 57.904697 4294967295
25.189703 72.599304 21.354856 4294967295
5.1952119 40.186821 -12.670008 4294967295
34.011738 20.713898 -28.271351 4294967295
40.184624 36.087929 -34.09346 4294967295
87.122986 44.403122 -4.8674345 4294967295
69.892845 25.825096 -55.672886 4294967295
133.19936 -24.127419 -164.43307 4294967295
131.93771 -25.013288 -147.52275 4294967295
155.1864 -47.791676 -183.81671 4294967295
99.591118 -41.688656 -210.88846 4294967295
135.12997 -6.5672898 -214.95265 4294967295
158.02081 13.854751 -198.29079 4294967295
127.14978 -23.4578 -166.00075 4294967295
121.8467 29.587833 -213.74203 4294967295
89.522209 1.8469545 -153.6512 4294967295
115.87583 31.243233 -138.87323 4294967295
97.544319 -13.378257 -190.3532 4294967295
36.64254 -1.4741824 -163.90646 4294967295
37.659645 -18.330109 -127.15098 4294967295
89.411659 -3.7406402 -149.99997 4294967295
64.972801 -3.8874087 -149.07756 4294967295
50.45977 15.246999 -165.18912 4294967295
16.648685 -6.4925337 -188.41968 4294967295
-3.5751321 15.57929 -137.82716 4294967295
89.986198 -26.369551 -60.09404 4294967295
110.26141 -88.001457 -26.358683 4294967295
94.53688 -118.68298 -47.417507 4294967295
139.21594 -153.44203 -73.596947 4294967295
103.66743 -196.93839 -63.828247 4294967295
96.672958 -226.79825 -144.53259 4294967295
111.18661 -236.05698 -169.69096 4294967295
106.56206 -381.2771 -140.01447 4294967295
127.38233 -327.60693 -159.00778 4294967295
124.66888 -377.39603 -170.51917 4294967295
138.23894 -374.94257 -124.08134 4294967295
104.31824 -405.24197 -134.69159 4294967295
130.69901 -428.25113 -94.537468 4294967295
122.87592 -536.02179 -127.16421 4294967295
94.757271 -474.03537 -94.573792 4294967295
116.23885 -456.49234 -106.63269 4294967295
119.73418 -417.55676 -59.723637 4294967295
85.250259 -96.745445 -40.045948 4294967295
115.22002 -136.44083 -115.57693 4294967295
112.4883 -210.25415 -77.51622 4294967295
101.08968 -239.25354 -169.57561 4294967295
88.39505 -373.3237 -164.18301 4294967295
112.74137 -335.26501 -179.19716 4294967295
108.39935 -410.98462 -179.67157 4294967295
93.473572 -445.05267 -132.27222 4294967295
93.360352 -526.6778 -138.37309 4294967295
55.525803 -79.924759 -361.2695 4294967295
45.590027 -152.27443 -354.91916 4294967295
60.104542 -165.5731 -322.85309 4294967295
17.937914 -150.99329 -347.80969 4294967295
60.59269 -206.9032 -395.95901 4294967295
-2.2977636 -227.78271 -364.07388 4294967295
89.639793 -293.76749 -334.35522 4294967295
14.713708 -301.81 -380.65308 4294967295
45.998844 -305.11392 -362.81982 4294967295
77.266045 -376.64926 -348.9082 4294967295
52.31636 -400.37213 -361.06888 4294967295
6.4526329 -412.30933 -343.06039 4294967295
48.22945 -491.39468 -379.77496 4294967295
-12.053483 -479.3688 -373.43546 4294967295
80.689095 -530.44342 -316.98026 4294967295
66.875702 -545.94513 -318.37122 4294967295
32.608601 -559.63147 -250.19405 4294967295
41.701241 -565.33154 -244.05522 4294967295
95.072662 -80.26104 -327.86328 4294967295
102.20127 -82.049072 -328.55145 4294967295
94.030403 -164.23656 -324.26846 4294967295
84.346085 -213.74588 -321.74213 4294967295
95.262978 -271.50537 -319.5015 4294967295
135.12143 -301.27441 -311.52878 4294967295
113.75599 -360.99097 -337.37659 4294967295
120.06366 -431.47577 -333.39578 4294967295
95.728561 -478.40561 -328.02072 4294967295
94.841888 -486.26703 -307.58078 4294967295
109.34159 -518.69122 -285.07431 4294967295
88.267303 -571.10785 -235.17439 4294967295
145.56201 -109.39246 -323.08282 4294967295
122.55035 -118.5133 -300.30994 4294967295
145.93385 -162.6413 -328.67383 4294967295
131.29437 -236.40054 -313.9249 4294967295
101.74457 -267.07172 -336.49976 4294967295
144.73415 -307.61554 -342.58148 4294967295
137.90761 -389.37598 -316.3465 4294967295
154.63567 -429.26566 -343.16418 4294967295
135.74458 -466.39087 -300.88486 4294967295
116.76443 -527.66382 -280.42639 4294967295
112.19981 -527.48486 -285.61688 4294967295
125.20256 -560.80548 -251.4297 4294967295
163.09396 -67.852509 -286.93213 4294967295
173.36688 -121.78366 -298.18811 4294967295
164.00432 -170.55214 -296.10339 4294967295
176.6033 -214.45276 -289.78839 4294967295
162.41917 -257.48801 -293.43353 4294967295
163.62967 -291.05399 -309.26343 4294967295
152.90369 -402.43304 -326.23929 4294967295
143.66782 -441.54544 -264.09976 4294967295
119.15942 -466.24197 -285.76468 4294967295
141.00612 -500.90216 -294.2132 4294967295
132.78111 -522.11542 -270.53201 4294967295
97.848946 -546.91736 -193.26218 4294967295
135.44896 -437.49985 -100.94104 4294967295
80.409195 -542.60687 -161.66188 4294967295
10.800303 -643.17944 -151.01735 4294967295
-2.7480974 -630.24414 -157.71529 4294967295
16.586279 -643.78247 -174.8826 4294967295
-18.881247 -579.74188 -176.30495 4294967295
-61.34922 -599.448 -145.40034 4294967295
-22.652805 -549.97675 -164.34056 4294967295
19.216242 -569.07355 -156.08862 4294967295
-2.2082858 -516.31464 -121.08737 4294967295
0.086015128 -525.80786 -98.271309 4294967295
-1.4189384 -537.88544 -182.92375 4294967295
-19.361071 4.6718855 -42.576103 4294967295
-74.503822 -28.809973 -40.470135 4294967295
-97.271782 -97.181519 -48.569843 4294967295
-67.487144 -94.758743 -59.334793 4294967295
-44.002644 -147.00697 -108.97237 4294967295
-68.693443 -119.53442 -81.806648 4294967295
-11.507984 -127.89951 -106.52665 4294967295
14.372574 -52.971855 -36.974987 4294967295
-59.792839 -201.51852 -85.448456 4294967295
20.809841 -175.52266 -86.30986 4294967295
-125.90824 -236.01584 -138.88802 4294967295
-100.3819 -230.85233 -154.03192 4294967295
-63.353035 -209.22319 -166.74678 4294967295
-18.488003 -229.2585 -136.42621 4294967295
-12.886771 -199.12207 -161.57008 4294967295
0.53664649 -388.05914 -164.04056 4294967295
-13.346446 -306.35406 -185.48897 4294967295
-8.8803139 -369.37241 -159.58366 4294967295
4.3665743 -434.00745 -164.26834 4294967295
-4.7213879 -409.28665 -106.80865 4294967295
0.99814606 -441.14832 -115.51678 4294967295
-56.657982 -551.87982 -194.38112 4294967295
23.41309 -516.87286 -125.04728 4294967295
30.268837 -580.37433 -160.49588 4294967295
4.7326159 -542.5611 -148.25301 4294967295
72.053093 -528.68695 -149.28595 4294967295
-13.875214 -396.4819 -122.5847 4294967295
81.978287 -93.740273 -44.261002 4294967295
87.895737 -114.90939 -79.241661 4294967295
65.973877 -21.45109 -82.704124 4294967295
93.35379 -131.94966 -81.628159 4294967295
62.965549 -111.76517 -112.93394 4294967295
74.867508 -185.93628 -91.226143 4294967295
58.945934 -249.71741 -148.11502 4294967295
79.90477 -250.97955 -161.28944 4294967295
-1.2860801 -383.58755 -174.34621 4294967295
33.000351 -406.84219 -137.02303 4294967295
61.919609 -543.75208 -156.48183 4294967295
-147.31581 -501.50082 -120.07262 4294967295
-164.46718 -485.56473 -128.94482 4294967295
-120.68805 -435.18979 -99.496063 4294967295
-132.47839 -450.32858 -119.69743 4294967295
-140.33009 -478.87537 -126.52569 4294967295
-144.17726 -501.15829 -158.84999 4294967295
-117.78571 -446.5137 -159.37759 4294967295
-133.24437 -436.43436 -175.3623 4294967295
-177.85936 -438.29373 -124.28895 4294967295
-169.40842 -420.22086 -135.42479 4294967295
-161.55099 -305.66827 -158.67656 4294967295
-166.90344 -294.29297 -177.05264 4294967295
-162.60909 -304.21841 -218.64168 4294967295
-161.91022 -289.50934 -181.73436 4294967295
-154.81064 -246.55293 -187.43417 4294967295
-153.96667 -270.2897 -225.36853 4294967295
-152.88005 -263.95386 -212.09808 4294967295
-175.44382 -249.78575 -178.19676 4294967295
-152.30914 -211.43019 -157.51479 4294967295
-169.0522 -209.07124 -209.73933 4294967295
-144.64717 -217.34348 -145.28284 4294967295
-184.92296 -259.11411 -201.19606 4294967295
-158.4008 -319.97006 -168.55103 4294967295
-156.08574 -304.67209 -155.09897 4294967295
-179.32631 -328.47141 -161.60739 4294967295
-155.26323 -319.67996 -174.64526 4294967295
-153.95708 -285.93588 -191.79243 4294967295
-160.39732 -241.55786 -193.06416 4294967295
-174.36987 -247.06879 -166.8269 4294967295
-167.99033 -299.54956 -143.96045 4294967295
-177.27017 -216.82654 -163.2718 4294967295
-140.58772 -208.09369 -177.46965 4294967295
-167.36595 -164.10007 -134.98769 4294967295
-166.36365 -140.95387 -99.009155 4294967295
-126.8388 -178.36864 -137.42334 4294967295
-132.06815 -170.06438 -111.78706 4294967295
-142.342 -151.75121 -118.15905 4294967295
-137.85114 -118.83238 -114.10091 4294967295
-96.60041 -148.98575 -132.85147 4294967295
-108.70265 -92.21241 -117.30605 4294967295
-148.5955 -109.79131 -113.59195 4294967295
-137.58394 -84.54155 -108.87849 4294967295
-155.42984 -88.012497 -115.22028 4294967295
176.87686 -464.51495 -129.18204 4294967295
141.6076 -468.32849 -127.44945 4294967295
168.19818 -418.70975 -129.25826 4294967295
124.18813 -486.52798 -137.77011 4294967295
153.09401 -464.64642 -179.78619 4294967295
174.37317 -453.90344 -123.25761 4294967295
125.12636 -443.1853 -125.09306 4294967295
164.08183 -462.98697 -154.27844 4294967295
143.47195 -453.79596 -172.13615 4294967295
160.48775 -428.40918 -127.74739 4294967295
138.17107 -425.90305 -146.64369 4294967295
136.46037 -398.00967 -120.05382 4294967295
110.07774 -474.8587 -144.63866 4294967295
172.08878 -307.74591 -192.11865 4294967295
180.87473 -338.74243 -158.28264 4294967295
160.39966 -269.79691 -226.85243 4294967295
175.4938 -247.78833 -169.13287 4294967295
148.80826 -268.49973 -178.47787 4294967295
156.28564 -282.55652 -194.38171 4294967295
172.00406 -248.61778 -175.26906 4294967295
161.93469 -230.09845 -197.20007 4294967295
171.76164 -228.593 -208.16621 4294967295
146.30168 -206.99213 -138.12521 4294967295
173.62074 -336.7674 -166.41069 4294967295
121.40987 -328.46646 -145.17171 4294967295
103.16854 -163.7209 -112.22816 4294967295
172.43144 -136.91614 -79.613815 4294967295
159.38908 -170.47588 -191.83958 4294967295
142.15683 -158.00282 -104.36871 4294967295
146.00021 -182.7869 -111.78833 4294967295
163.95288 -146.57379 -147.37082 4294967295
140.0909 -93.862579 -133.97859 4294967295
147.3262 -125.38615 -103.56509 4294967295
147.29605 -105.38334 -107.47293 4294967295
110.84895 -95.619331 -94.265739 4294967295
139.19724 -96.653595 -131.13979 4294967295
115.52012 -91.313934 -115.04586 4294967295
196.72289 -293.59839 -151.23645 4294967295
152.49919 -235.99687 -144.18044 4294967295
-122.31005 -73.636993 -73.659668 4294967295
-119.20486 -78.396355 -45.852272 4294967295
-107.74332 -24.094667 -66.514183 4294967295
-126.23824 2.7917626 -91.139877 4294967295
-106.26364 25.084433 -58.027851 4294967295
-109.69177 15.256177 -79.517799 4294967295
-82.794922 -8.2042122 -63.342999 4294967295
-76.44754 10.779211 -77.988419 4294967295
-38.152683 42.119438 -55.781841 4294967295
-44.603004 24.055052 -55.885403 4294967295
3.4147341 62.613789 -41.487698 4294967295
-3.7526648 77.422676 -101.02696 4294967295
-55.783253 59.46648 -96.424065 4294967295
-106.36099 57.863922 -114.47272 4294967295
-183.78972 71.189575 -100.43882 4294967295
-172.38312 -18.149036 -118.78163 4294967295
-150.255 -44.970665 -101.537 4294967295
-170.34009 -43.738358 -130.453 4294967295
-139.01353 -61.969521 -138.85643 4294967295
-123.44235 -63.264408 -175.6142 4294967295
-166.70633 -37.930367 -152.97589 4294967295
-180.09906 -21.084566 -158.66777 4294967295
-32.777283 42.583237 -117.0236 4294967295
0.43169591 66.532768 -123.31554 4294967295
18.795925 46.703064 -128.38667 4294967295
-53.939285 34.284691 -152.21947 4294967295
-32.188324 28.098204 -166.56723 4294967295
-98.496536 42.73798 -171.18906 4294967295
-78.505013 22.09741 -176.53821 4294967295
-117.37222 32.06509 -144.1572 4294967295
-131.77625 37.804676 -151.43358 4294967295
-171.8611 33.189472 -124.77847 4294967295
-163.02791 -35.007435 -139.02609 4294967295
-132.76274 -29.392178 -180.72684 4294967295
-129.99722 27.392872 -188.46838 4294967295
-143.41791 -11.103994 -203.47746 4294967295
-154.43794 9.6772375 -224.25407 4294967295
-138.68849 -24.855415 -205.80144 4294967295
-146.09338 -20.418301 -214.99672 4294967295
-80.366249 43.907162 -168.84393 4294967295
-91.738495 30.333042 -161.93381 4294967295
-107.63551 -1.1842582 -219.42311 4294967295
-90.778702 5.1468887 -208.36461 4294967295
-44.912922 29.141602 -157.2803 4294967295
-36.823669 10.047896 -175.34131 4294967295
-116.75155 20.552219 -191.02483 4294967295
-127.37881 -5.0583344 -192.41998 4294967295
-28.988911 8.6523371 -191.1265 4294967295
-42.741451 16.412933 -225.58794 4294967295
-41.70129 -38.554821 -152.63657 4294967295
-77.112968 1.1462946 -184.25772 4294967295
-49.643921 -12.096837 -175.14508 4294967295
-86.341606 -9.6317682 -182.26666 4294967295
-100.81245 -8.8667679 -168.7361 4294967295
-97.19239 0.35127336 -151.59297 4294967295
-117.63754 5.2862616 -133.20279 4294967295
-138.98051 -13.356679 -190.48706 4294967295
1.0881289 23.684986 -133.93184 4294967295
-25.001032 50.128899 -152.40797 4294967295
6.8050113 -24.380527 -128.57825 4294967295
-46.71653 -0.83411503 -148.12183 4294967295
-47.864605 5.2600656 -200.21489 4294967295
22.618902 31.807388 -63.415466 4294967295
-151.73991 -19.729345 -219.25719 4294967295
112.35146 -20.426979 -62.373341 4294967295
93.779358 16.49614 -65.068695 4294967295
140.49275 -89.44178 -67.69471 4294967295
116.56017 -61.833065 -61.488106 4294967295
90.883408 46.116199 -57.075893 4294967295
114.53448 39.576466 -89.679428 4294967295
99.099831 42.923 -110.92091 4294967295
32.549545 10.122199 -58.416096 4294967295
45.687675 30.319336 -56.52335 4294967295
31.469166 18.561031 -32.311008 4294967295
58.146469 70.80175 -108.33418 4294967295
108.59836 88.290314 -86.421829 4294967295
159.47414 50.016426 -87.631905 4294967295
154.07689 -26.267694 -106.97159 4294967295
173.88046 -58.356293 -91.669044 4294967295
140.06703 -57.444794 -143.86627 4294967295
136.94705 -61.314995 -115.74352 4294967295
118.84073 -29.424509 -157.48024 4294967295
144.79791 -22.512983 -161.44624 4294967295
168.40469 -19.968105 -117.78782 4294967295
22.241678 53.121319 -144.24254 4294967295
63.220528 51.488003 -124.34287 4294967295
59.371384 21.329565 -144.96259 4294967295
97.993286 52.62825 -131.89503 4294967295
109.16989 57.623489 -143.70264 4294967295
119.3982 38.450142 -170.46571 4294967295
165.18262 48.312641 -145.13701 4294967295
134.59354 3.4943326 -129.84407 4294967295
151.96196 -19.994188 -170.76636 4294967295
149.45384 -32.527157 -194.32385 4294967295
145.95749 -9.893239 -178.16632 4294967295
153.9772 2.2869756 -216.39091 4294967295
130.97273 -49.695225 -234.94908 4294967295
179.88696 -21.160816 -199.57462 4294967295
102.54229 35.893257 -188.36685 4294967295
80.184525 44.345974 -160.39819 4294967295
107.93968 -5.6624427 -222.14874 4294967295
74.062729 -8.8646507 -219.11118 4294967295
21.93841 29.828108 -169.21353 4294967295
38.863983 1.3250507 -166.23441 4294967295
127.62077 17.896959 -187.15256 4294967295
112.31489 49.996441 -147.86147 4294967295
50.237877 4.3202653 -236.34445 4294967295
14.874139 -25.946486 -193.53624 4294967295
71.674232 7.5618758 -174.10175 4294967295
50.490574 -7.1704116 -136.83484 4294967295
30.46686 -28.517467 -166.97366 4294967295
77.794121 1.6473165 -205.14737 4294967295
70.092857 1.7848901 -201.89276 4294967295
97.210594 21.424606 -144.20383 4294967295
128.66595 6.3222756 -161.5282 4294967295
128.13301 -38.662971 -185.60115 4294967295
-1.3106366 -11.380191 -112.71474 4294967295
-1.9467915 18.606056 -139.68343 4294967295
21.507994 5.7577395 -143.42416 4294967295
147.57008 -19.994354 -187.30817 4294967295
-152.68077 -39.236004 -126.38735 4294967295
-144.41371 -31.360565 -118.33582 4294967295
-129.71819 20.327129 -122.05326 4294967295
-131.24147 44.086994 -94.580505 4294967295
-139.27805 60.032742 -131.08278 4294967295
-78.214775 82.968216 -79.047012 4294967295
-9.8884039 37.8433 -77.8666 4294967295
-18.695938 64.198647 -125.49648 4294967295
163.02995 -35.055492 -90.778847 4294967295
156.21397 -60.432465 -98.83213 4294967295
164.33472 43.598148 -125.26815 4294967295
186.12195 57.688904 -122.97598 4294967295
101.05154 9.9829721 -106.83597 4294967295
57.114109 60.365067 -89.107903 4294967295
-5.2009883 -456.78308 92.136604 4294967295
3.1196351 -503.40619 92.440742 4294967295
0.75885671 -515.85034 82.157799 4294967295
-24.578453 -515.59937 77.248711 4294967295
11.459384 -528.66071 95.11013 4294967295
-6.5340319 -523.76678 106.10832 4294967295
4.2267995 -523.06 117.90173 4294967295
-34.016075 -492.58472 136.01581 4294967295
1.435851 -510.25778 127.40672 4294967295
-21.15201 -525.646 110.20313 4294967295
-14.448872 -490.38785 126.29859 4294967295
4.6836834 -501.3797 88.491341 4294967295
-7.6000786 -510.70407 128.7677 4294967295
-1.4344289 -510.74258 90.014244 4294967295
17.953257 -487.53976 88.471901 4294967295
-11.599366 -484.60352 107.94073 4294967295
-11.295036 -465.29153 101.61822 4294967295
0.57331514 -448.06555 86.389648 4294967295
19.481405 -487.88864 90.430138 4294967295
2.3985374 -483.23553 108.55051 4294967295
-5.0603986 -462.21002 108.02336 4294967295
7.9477711 -468.87473 102.84031 4294967295
-9.665309 -476.38876 117.2943 4294967295
-6.53897 -423.33658 129.26868 4294967295
-8.2660627 -482.8154 107.95867 4294967295
20.633919 -458.64749 124.82491 4294967295
-4.1277628 -472.53662 127.70578 4294967295
10.243898 -456.95166 132.43974 4294967295
-16.365059 -505.50009 96.245186 4294967295
-29.424887 -500.93533 117.68438 4294967295
13.624062 -501.69882 114.51684 4294967295
4.0727715 -488.79263 109.45091 4294967295
0.14679384 -469.54318 72.686478 4294967295
-12.910984 -463.76193 111.10347 4294967295
5.9997692 -493.72083 97.486732 4294967295
0.05345368 -466.98178 108.50279 4294967295
-39.302391 -455.88962 115.80679 4294967295
-22.085083 -449.80933 121.4372 4294967295
-9.6282225 -491.38168 122.62199 4294967295
-10.97668 -464.65533 116.28654 4294967295
15.523236 -499.57193 90.849007 4294967295
1.3931172 -495.55099 97.09861 4294967295
-3.50511 -488.03876 64.416885 4294967295
-28.698244 -515.63873 115.13699 4294967295
-17.091742 -470.59805 104.46861 4294967295
-2.6813588 -506.73929 130.11801 4294967295
-26.961695 -491.63705 147.29305 4294967295
-8.1745272 -503.63159 103.41032 4294967295
-6.049942 -465.4903 117.97457 4294967295
15.116165 -464.3963 141.93832 4294967295
40.218555 -482.40884 91.060326 4294967295
13.555978 -477.00507 107.58839 4294967295
14.665475 -461.9856 123.40554 4294967295
25.454063 -468.68097 139.53738 4294967295
11.723122 -486.5343 131.76338 4294967295
22.0767 -464.76956 93.409309 4294967295
1.6340381 -482.45435 104.95988 4294967295
23.203875 -463.48535 89.718605 4294967295
35.623474 -508.59354 106.97363 4294967295
22.300638 -530.18066 111.10986 4294967295
27.143345 -500.07526 121.14005 4294967295
54.780785 -482.75281 109.9262 4294967295
22.800631 -518.06342 128.81277 4294967295
12.246546 -477.71329 112.46625 4294967295
28.325422 -488.95285 84.873756 4294967295
1.8585764 -495.79843 65.85672 4294967295
3.6163244 -494.47421 88.15892 4294967295
13.044562 -512.43207 99.437317 4294967295
-13.642524 -491.52185 81.524429 4294967295
-1.0756462 -490.23431 69.379494 4294967295
-1.8242532 -553.0304 -107.1696 4294967295
29.458851 -510.60248 -90.601974 4294967295
2.8011863 -487.38199 -113.36071 4294967295
-22.295593 -521.46118 -111.71987 4294967295
16.031794 -502.7493 -90.799431 4294967295
-2.9581819 -502.60376 -89.899353 4294967295
12.097483 -506.66702 342.37195 4294967295
0.62626588 -516.99255 321.03113 4294967295
-18.812294 -460.04868 -84.782623 4294967295
-63.267147 -478.25244 -91.231232 4294967295
23.062637 -474.67355 -88.818329 4294967295
-1.3712234 -438.58432 -131.51486 4294967295
-6.8413057 -492.40445 -114.15252 4294967295
15.957602 -471.80341 -128.73367 4294967295
12.714437 -500.11432 331.5722 4294967295
-19.817562 -480.95966 330.58615 4294967295
-7.6079311 -458.90475 -108.26643 4294967295
-5.7349372 -484.48685 -114.69775 4294967295
4.2073965 -476.48294 -102.60003 4294967295
-2.3005126 -482.09219 323.75629 4294967295
-18.788321 -513.84674 -84.672646 4294967295
-30.519194 -507.27853 -118.17657 4294967295
4.9419351 -500.1759 -73.53421 4294967295
9.936182 -488.90686 116.5976 4294967295
2.852417 -458.90836 347.40756 4294967295
36.245476 -456.76764 343.7869 4294967295
16.626881 -488.00458 336.54361 4294967295
2.7133348 -488.60074 -95.038521 4294967295
39.34111 -457.98029 -107.83454 4294967295
1.7907615 -482.5314 -105.10231 4294967295
47.737686 -490.77432 -81.812241 4294967295
24.697672 -497.70969 -117.32683 4294967295
11.928228 -463.89902 91.522903 4294967295
10.644469 -484.09622 -83.12635 4294967295
29.755566 -507.48514 -133.80937 4294967295
-11.898288 -484.18155 -111.07278 4294967295
-24.694603 -518.85297 -90.140892 4294967295
-4.4493155 -512.10791 -111.70093 4294967295
-27.338379 -480.66348 -102.0875 4294967295
-24.945131 -467.22009 -127.66425 4294967295
-20.683176 -454.74753 -113.69511 4294967295
1.4017726 -467.93753 -139.1981 4294967295
-53.366627 -489.78217 -150.33566 4294967295
-14.485461 -472.60867 -104.4552 4294967295
-26.019539 -495.81445 -129.05353 4294967295
-16.584238 -507.388 -93.064354 4294967295
9.8550148 -458.46344 -151.45224 4294967295
13.429992 -487.67044 -124.15335 4294967295
33.740986 -501.00073 -101.52449 4294967295
34.40123 -529.20959 -122.20751 4294967295
-119.40747 -396.65714 -136.02251 4294967295
-171.37794 -423.14893 -132.22211 4294967295
-131.95079 -441.87326 -107.96349 4294967295
-159.67177 -434.30719 -92.55896 4294967295
-125.12683 -480.72968 -134.07712 4294967295
-151.93942 -479.50885 -131.95877 4294967295
-125.64411 -476.84018 -133.58836 4294967295
-130.67896 -460.27469 -124.0639 4294967295
175.89639 -450.68176 -134.00545 4294967295
125.92336 -425.68509 -103.69449 4294967295
110.12565 -430.72726 -132.60841 4294967295
145.47861 -399.54321 -155.25662 4294967295
152.05353 -460.1748 -115.55138 4294967295
142.808 -479.75278 -87.637993 4294967295
149.98141 -457.74631 -150.45181 4294967295
114.32423 -477.76584 -143.90251 4294967295
2.4193597 -168.33795 122.47186 4294967295
-5.0986242 -137.23698 110.95262 4294967295
-38.305656 -155.23958 115.22118 4294967295
-15.853556 -127.49385 143.64001 4294967295
12.70341 -153.19557 145.92259 4294967295
-14.96144 -161.33464 136.13644 4294967295
-7.1216588 -169.19496 111.33012 4294967295
-7.5437555 -165.14427 120.43457 4294967295
15.979119 -154.06801 156.3181 4294967295
-29.931805 -131.54257 162.14279 4294967295
-4.6801686 -132.80727 149.79976 4294967295
5.9765534 -168.94646 149.64296 4294967295
-12.138865 -171.90826 123.0825 4294967295
-16.022747 -164.92972 165.57294 4294967295
32.134338 -136.85321 110.55404 4294967295
-12.284307 -122.76422 96.888786 4294967295
14.051871 -125.02837 126.37012 4294967295
-23.957903 -116.3437 82.325958 4294967295
7.3072891 -118.99823 107.87607 4294967295
6.7575669 -109.35606 115.07639 4294967295
16.691273 -125.21923 115.17577 4294967295
1.3873848 -155.09352 149.52931 4294967295
-22.335655 -115.19183 112.51355 4294967295
14.680076 -130.68918 134.14453 4294967295
-30.004946 -170.82533 137.24254 4294967295
8.3214703 -129.84546 167.78928 4294967295
-21.255789 -135.0471 133.37752 4294967295
8.7469225 -147.22983 141.36913 4294967295
-3.9306874 -165.93582 121.48433 4294967295
-11.552481 -137.46606 120.94862 4294967295
10.575724 -124.43978 142.10304 4294967295
8.7767258 -136.36118 116.63612 4294967295
-2.5200326 -128.03989 124.41284 4294967295
-27.546417 -140.58171 126.63822 4294967295
-3.0975306 -148.32971 124.36304 4294967295
-15.28297 -136.87901 153.97424 4294967295
-13.048201 -136.18394 149.58844 4294967295
-37.754585 -121.22816 154.98727 4294967295
-8.5640335 -145.78896 118.36593 4294967295
-17.412067 -150.55574 136.37152 4294967295
12.728502 -140.55263 140.72141 4294967295
8.5995741 -159.57018 118.61945 4294967295
-12.962523 -166.19212 123.76485 4294967295
-22.747902 -147.54803 163.5191 4294967295
-36.722725 -157.32231 161.28699 4294967295
-22.215071 -152.23874 138.49556 4294967295
-39.551159 -163.19423 151.22719 4294967295
-7.2650099 -122.33292 120.0321 4294967295
0.065419436 -173.72983 121.07248 4294967295
13.088421 -158.5302 109.38174 4294967295
14.015121 -140.13315 123.9097 4294967295
17.821354 -127.10153 148.38242 4294967295
12.31575 -118.39002 142.15102 4294967295
-6.3734307 -137.70163 124.44409 4294967295
9.2731342 -143.91818 138.36566 4294967295
0.69085431 -124.4887 117.99119 4294967295
-7.0225015 -148.2599 124.24572 4294967295
17.133535 -153.73531 112.9101 4294967295
43.020874 -137.23441 123.60497 4294967295
-1.4460462 -151.45012 144.70566 4294967295
13.000724 -181.91725 132.87141 4294967295
7.6166496 -169.53972 111.02216 4294967295
0.74220085 -129.55653 147.39476 4294967295
24.732948 -129.0657 107.04728 4294967295
-5.4447823 -150.15813 129.67934 4294967295
16.936895 -147.75111 115.66808 4294967295
-6.0474916 -147.815 135.0331 4294967295
-9.6128435 -117.58598 112.63432 4294967295
-12.651473 -151.8347 90.347076 4294967295
19.480911 -118.23138 102.96746 4294967295
16.708908 -148.44086 -103.97816 4294967295
0.048119511 -177.9996 -80.769798 4294967295
-29.147474 -197.67552 -66.122604 4294967295
-26.554007 -170.06476 -78.592896 4294967295
-23.85585 -154.05312 -78.941025 4294967295
-1.1494341 -166.53589 -109.0215 4294967295
13.537494 -158.09373 309.04404 4294967295
-18.83564 -159.02371 333.29196 4294967295
-14.344303 -114.84909 -106.51553 4294967295
-18.596802 -129.45784 -87.941597 4294967295
6.9631495 -142.05128 -97.348961 4294967295
24.481714 -96.829529 -62.934242 4294967295
1.2261873 -100.05646 -76.363503 4294967295
-17.599758 -127.2438 -94.82959 4294967295
15.071795 -152.45898 365.40796 4294967295
8.7786026 -154.96519 346.18079 4294967295
-31.299337 -142.5415 -94.277214 4294967295
-42.671486 -132.87268 -73.27195 4294967295
-21.857815 -158.09021 -67.453339 4294967295
-18.536457 -140.48351 359.56726 4294967295
-45.462154 -174.20134 -69.655441 4294967295
-46.864456 -155.65971 -91.857201 4294967295
-33.746407 -155.12856 -79.213493 4294967295
2.6507018 -164.78348 134.40269 4294967295
-6.8049054 -158.69627 355.39941 4294967295
25.652605 -182.61847 360.57874 4294967295
24.038166 -153.52985 353.90302 4294967295
22.567146 -120.60471 -85.358467 4294967295
27.238295 -121.716 -100.76381 4294967295
2.0091434 -159.65762 -61.958431 4294967295
27.713503 -141.64401 -84.24604 4294967295
20.495205 -177.26863 -85.740944 4294967295
11.591482 -158.27742 -77.702835 4294967295
-17.588438 -184.33527 117.10883 4294967295
-4.5609784 -117.73714 -108.24704 4294967295
8.9578762 -186.11229 -84.924416 4294967295
9.9647789 -186.86475 -94.766037 4294967295
-20.966442 -213.23822 -138.2256 4294967295
-6.7338042 -120.39755 -98.031654 4294967295
-0.90138668 -96.308197 -64.37796 4294967295
11.553783 -122.55293 -99.948494 4294967295
21.923466 -116.67416 -123.45213 4294967295
-15.059531 -138.59723 -107.32356 4294967295
-21.017242 -120.05195 -50.985435 4294967295
-14.642691 -148.8407 -102.30817 4294967295
-31.213728 -150.98091 -82.677086 4294967295
1.624884 -126.33061 -133.29117 4294967295
15.22421 -144.13474 -68.545746 4294967295
32.04076 -147.32817 -78.661377 4294967295
0.1820828 -161.49948 -95.589409 4294967295
-131.59811 -95.779266 -107.80547 4294967295
-143.9557 -146.12567 -97.569405 4294967295
-136.62892 -112.77708 -96.341072 4294967295
-125.74255 -105.50173 -94.406502 4294967295
-163.4614 -135.05968 -127.38855 4294967295
-156.47162 -157.48817 -105.96708 4294967295
-137.70222 -131.22691 -109.70387 4294967295
-152.79536 -123.72568 -119.25577 4294967295
131.94785 -110.56438 -135.66991 4294967295
154.3481 -106.41447 -127.43791 4294967295
144.39691 -124.55042 -128.81564 4294967295
149.0589 -123.28269 -123.63676 4294967295
149.48802 -166.15106 -106.02096 4294967295
140.85391 -162.20251 -111.92058 4294967295
147.83609 -157.54999 -113.96021 4294967295
142.3575 -169.47656 -121.4634 4294967295
1.0631737 28.846548 44.471607 4294967295
-2.7880206 37.62019 60.274307 4294967295
5.4125242 19.619669 93.774612 4294967295
-23.243341 32.028732 29.362896 4294967295
2.6551285 42.512135 64.816978 4294967295
-4.4581752 21.168762 89.49968 4294967295
26.902889 34.798149 52.567307 4294967295
-21.960312 17.916321 82.229744 4294967295
7.9493723 38.790642 64.221306 4294967295
-12.85031 33.193562 69.337883 4294967295
17.210192 11.292585 101.79043 4294967295
6.9346385 5.6065316 95.016556 4294967295
21.555487 17.771223 114.74749 4294967295
16.852304 18.042217 98.004539 4294967295
2.1776655 42.512291 109.79845 4294967295
-9.5156307 6.6992459 112.99204 4294967295
11.356998 6.7588868 103.92815 4294967295
-8.5590267 18.29303 114.19111 4294967295
-4.8552408 54.177769 125.29402 4294967295
24.243574 34.167831 95.025467 4294967295
-5.6959314 24.148062 185.7303 4294967295
10.574336 46.742901 29.945377 4294967295
-0.044271067 27.851881 59.766666 4294967295
-11.971606 29.486273 45.045448 4294967295
16.505985 22.552515 61.821239 4294967295
5.1772223 47.164753 125.00261 4294967295
10.849314 42.552963 86.131081 4294967295
19.765087 9.2520399 95.499565 4294967295
3.6230087 45.187317 78.56913 4294967295
-3.8365815 31.760939 88.042961 4294967295
-18.053452 19.562298 87.196732 4294967295
8.5620661 29.616043 46.061943 4294967295
-13.769626 33.260571 37.689281 4294967295
-10.794517 31.337908 97.491348 4294967295
-4.5673661 29.568285 89.526741 4294967295
-1.1816844 44.787167 65.449348 4294967295
28.720795 46.790264 94.399734 4294967295
35.998489 46.620094 107.98994 4294967295
-11.464842 29.228025 90.42894 4294967295
-14.015771 43.836132 98.389191 4294967295
8.4250679 24.274099 78.694 4294967295
22.335297 17.710907 35.946743 4294967295
11.155746 82.47242 72.345421 4294967295
5.7086611 20.947672 58.596497 4294967295
-0.34774572 31.193947 60.317898 4294967295
9.1381397 44.526363 84.991112 4294967295
-4.9051919 50.471016 104.65707 4294967295
10.816648 45.501923 89.803818 4294967295
-36.552631 37.225937 88.658798 4294967295
23.849817 47.819775 101.61498 4294967295
-23.411991 25.032597 120.57348 4294967295
-1.8597367 30.455421 31.591187 4294967295
-4.8943114 12.342617 46.738987 4294967295
-32.12619 53.002205 75.161339 4294967295
-20.159218 10.310892 63.519623 4294967295
-13.152931 42.413136 97.244858 4294967295
19.376051 45.492146 79.835747 4294967295
-11.777346 68.718773 98.401985 4294967295
-10.50927 55.114552 83.344826 4294967295
-2.1706898 24.733149 127.18379 4294967295
17.902309 38.562317 116.10607 4294967295
-1.0201157 27.980255 31.997572 4294967295
14.190501 6.8836145 89.05043 4294967295
-6.4202838 24.562252 87.993225 4294967295
-2.6985893 21.225178 71.516113 4294967295
-22.377695 47.582523 68.411461 4294967295
-30.897009 19.636265 108.76545 4294967295
-33.03738 12.417984 98.933418 4294967295
2.6347802 7.0353804 91.733513 4294967295
-7.2907724 18.702204 81.86763 4294967295
13.103661 67.829964 108.39178 4294967295
19.049852 48.47369 54.784027 4294967295
-3.0412681 16.299765 31.914619 4294967295
-31.502792 26.742239 90.431572 4294967295
-13.386229 54.653313 71.346336 4294967295
2.2850211 6.8922286 88.243248 4294967295
7.3164234 15.710765 75.177162 4294967295
-13.011476 26.8137 86.706848 4294967295
-18.413109 27.73637 79.241798 4294967295
7.0953937 4.638648 98.622803 4294967295
0.18682411 18.713158 102.42251 4294967295
1.6240491 -573.71301 -185.27745 4294967295
-1.4420277 -784.66455 -32.109322 4294967295
-11.656416 -777.19415 -24.599247 4294967295
-5.5070271 -574.88879 -194.71031 4294967295
-8.8312387 -583.61029 -192.29166 4294967295
-5.4392738 -774.32672 -45.472614 4294967295
14.699019 -564.82251 -194.53883 4294967295
18.232405 -775.89148 -19.366123 4294967295
-0.56535262 -570.65332 -178.73735 4294967295
3.189913 -747.18628 -47.937138 4294967295
-4.8187909 -539.15271 -168.25972 4294967295
8.8022327 -791.10931 -17.482317 4294967295
10.639419 -539.32306 -165.519 4294967295
24.782124 -760.83704 7.9061193 4294967295
-7.0091562 -562.41864 -183.86691 4294967295
-3.9531446 -801.94312 -35.805363 4294967295
-212.23421 -351.26901 137.12613 4294967295
-231.81091 -360.69199 114.44233 4294967295
-254.80309 -343.92313 125.6551 4294967295
-186.88872 -341.33405 115.2486 4294967295
-112.95002 -334.81003 134.57268 4294967295
-101.94979 -345.53644 130.00844 4294967295
-46.022507 -335.15897 115.83791 4294967295
-29.787924 -359.7308 129.07303 4294967295
-205.01894 -348.83594 147.54666 4294967295
-245.75999 -327.02002 118.17968 4294967295
22.426006 -334.81332 124.00756 4294967295
-21.087042 -315.96255 138.43773 4294967295
-169.12527 -335.26913 138.2421 4294967295
-257.52689 -329.07626 114.45021 4294967295
15.516186 -351.39618 77.951149 4294967295
-201.42226 -346.56024 127.99277 4294967295
-241.57008 -322.22345 111.10961 4294967295
-18.784334 -374.50473 110.70419 4294967295
-219.03284 -325.93179 103.56476 4294967295
-245.711 -362.98117 121.37566 4294967295
-24.993521 -345.04663 103.68996 4294967295
-197.61452 -317.27762 94.203934 4294967295
-225.91235 -342.05704 140.11406 4294967295
3.907546 -335.64178 126.17538 4294967295
-170.65643 -329.28793 134.3223 4294967295
-246.6088 -347.05692 134.85567 4294967295
-25.857964 -354.53668 131.66249 4294967295
-29.655258 -352.24863 116.66001 4294967295
-57.603653 -346.23227 168.60353 4294967295
-100.29319 -314.21185 109.26517 4294967295
210.22313 -343.73761 134.88647 4294967295
222.24718 -332.8511 98.121483 4294967295
234.57994 -342.74335 112.33712 4294967295
184.45657 -340.36316 111.44314 4294967295
170.63745 -339.46353 133.54912 4294967295
251.07932 -329.52045 120.64383 4294967295
189.88307 -354.62936 132.81137 4294967295
215.97592 -355.90997 142.53763 4294967295
207.68486 -319.40091 136.19832 4294967295
255.28348 -331.48688 118.62255 4294967295
198.51312 -308.21118 116.32604 4294967295
225.27484 -324.98013 138.18417 4294967295
211.06544 -341.73129 101.36443 4294967295
266.79721 -322.547 118.106 4294967295
219.03616 -334.11255 111.71754 4294967295
226.77721 -330.02957 125.48997 4294967295
178.78127 -330.73392 138.30453 4294967295
201.59634 -317.06821 109.5687 4294967295
-20.525181 -343.46777 148.06491 4294967295
-149.10616 -343.61133 110.79529 4294967295
-167.92018 -347.39148 101.23756 4294967295
37.986767 -330.46451 116.49203 4294967295
144.98604 -348.64813 122.98748 4294967295
89.475235 -355.52664 106.80834 4294967295
62.245136 -335.66617 140.284 4294967295
119.84621 -332.2905 131.27319 4294967295
97.140259 -346.14801 111.22771 4294967295
36.045288 -334.20087 107.1306 4294967295
-149.57501 -356.65204 119.50622 4294967295
139.81403 -340.54367 121.73069 4294967295
-158.88103 -377.30582 88.424553 4294967295
-159.85983 -386.81003 97.765442 4294967295
-92.291519 -389.76987 110.67035 4294967295
-89.198387 -383.58875 97.912666 4294967295
-8.2208366 -381.09357 104.66011 4294967295
-14.39761 -366.5441 107.69313 4294967295
-146.2742 -403.88055 71.290672 4294967295
-124.37948 -402.90201 63.657558 4294967295
-56.608925 -393.85281 52.429905 4294967295
-10.316771 -403.72028 64.858383 4294967295
15.181929 -390.47556 88.313126 4294967295
-50.435226 -398.98007 46.649986 4294967295
-32.515877 -390.03391 14.543257 4294967295
6.3432589 -441.24457 46.046009 4294967295
-187.22659 -352.08609 105.72162 4294967295
-198.51413 -337.67044 66.447906 4294967295
-135.55835 -399.11627 56.031723 4294967295
-174.71074 -368.13153 21.011244 4294967295
-156.21559 -407.86572 -4.0762582 4294967295
-127.56893 -389.70883 38.073208 4294967295
-100.55338 -426.35107 33.022255 4294967295
-188.73921 -336.80713 2.9340026 4294967295
-150.96608 -400.42151 -21.506605 4294967295
-133.08611 -396.40482 4.6325965 4294967295
-87.678352 -423.66467 12.817298 4294967295
-61.45071 -417.6908 -23.715168 4294967295
-35.102047 -427.07373 0.61360604 4294967295
0.69986582 -428.37213 -7.9517899 4294967295
-181.94124 -343.42096 -95.186211 4294967295
-139.59998 -356.5162 -48.158276 4294967295
-101.52866 -403.11371 -64.396141 4294967295
-107.14941 -392.3497 -40.485264 4294967295
-66.333115 -420.97562 -57.793648 4294967295
-32.068005 -423.21292 -39.395164 4294967295
8.8851414 -430.44891 -36.157604 4294967295
-154.62769 -315.80441 -115.50055 4294967295
-160.70665 -373.70139 -114.35303 4294967295
-114.84271 -397.70746 -93.404732 4294967295
-81.898529 -387.73822 -93.763504 4294967295
-53.064178 -408.41772 -74.248924 4294967295
-19.429161 -396.11548 -49.174179 4294967295
24.821051 -409.39252 -91.133896 4294967295
-155.40187 -340.52768 85.663704 4294967295
-76.663368 -369.31876 38.915924 4294967295
-123.45625 -370.33176 42.735367 4294967295
-89.497864 -370.8494 80.348679 4294967295
-62.670452 -367.93579 95.026794 4294967295
-51.102776 -389.22675 61.241035 4294967295
-25.401489 -344.91467 93.79055 4294967295
-32.160213 -391.17068 80.918709 4294967295
21.304054 -390.77502 120.00398 4294967295
-25.77907 -392.08603 52.604458 4294967295
-51.409908 -412.95529 39.208332 4294967295
-74.31572 -414.97299 33.029163 4294967295
0.65397388 -407.0383 28.726521 4294967295
-166.7926 -348.00916 84.395111 4294967295
-171.92392 -363.80722 72.007347 4294967295
-174.36302 -381.74448 31.995996 4294967295
-133.38812 -408.4494 38.687767 4294967295
-96.362976 -409.28378 22.007723 4294967295
-145.63869 -361.60828 -38.200603 4294967295
-113.4656 -383.73666 -32.875538 4294967295
-87.048439 -415.55243 -6.1159072 4294967295
-54.352867 -422.22495 5.1565099 4294967295
-30.764246 -426.10443 8.9057636 4294967295
2.3359308 -455.19009 -13.119492 4294967295
-137.37419 -367.64496 -79.245789 4294967295
-132.05891 -364.84021 -76.370247 4294967295
-101.04802 -389.63605 -37.39185 4294967295
-67.52346 -406.8569 -35.442696 4294967295
-30.285789 -407.08032 -65.106766 4294967295
-10.85022 -401.88412 -46.552563 4294967295
191.99712 -355.25073 79.09166 4294967295
136.15059 -391.67401 71.037811 4294967295
119.45277 -382.68869 95.792328 4294967295
58.700912 -382.54102 99.265762 4294967295
38.367912 -382.58289 105.33461 4294967295
105.99586 -393.3595 72.785454 4294967295
127.98913 -415.98062 77.309441 4294967295
77.45327 -416.85526 53.107407 4294967295
32.608154 -416.41565 64.344994 4294967295
31.616495 -435.20908 8.4614887 4294967295
98.022987 -420.47769 14.121643 4294967295
212.78607 -367.17554 69.792526 4294967295
201.14215 -358.57739 74.982285 4294967295
204.78331 -355.194 54.003162 4294967295
156.26483 -373.61014 31.485723 4294967295
192.65536 -380.75626 -5.6992545 4294967295
129.59982 -403.19757 18.13201 4294967295
78.842758 -393.0065 33.302441 4294967295
143.15535 -405.5426 -19.25153 4294967295
165.94041 -371.87595 -21.159681 4294967295
127.10526 -393.93121 -4.7263646 4294967295
