# .PCD v0.7 - Point Cloud Data file format
VERSION 0.7
FIELDS x y z rgba
SIZE 4 4 4 4
TYPE F F F U
COUNT 1 1 1 1
WIDTH 1204
HEIGHT 1
VIEWPOINT 0 0 0 1 0 0 0
POINTS 1204
DATA ascii
-48.197601 -1.4256001 -143.61 4294967295
-48.197102 -1.42589 -169.32401 4294967295
-80.290497 -1.42612 -182.38 4294967295
-13.2062 -1.4255 -143.61 4294967295
-13.2063 -1.42545 -169.323 4294967295
-30.500401 -1.42551 -169.32401 4294967295
-30.498899 -1.42556 -143.61099 4294967295
-5.2766602e-05 17.641701 49.603298 4294967295
-5.7832502e-05 13.3019 31.853901 4294967295
-6.5605498e-05 6.6427999 4.6196899 4294967295
-7.06766e-05 2.2983799 -13.1479 4294967295
-7.3662603e-05 0.340031 -22.9641 4294967295
-77.867699 -8.2934599 -45.604698 4294967295
-7.8842299e-05 -8.2691002 -45.604801 4294967295
-99.013603 -109.434 -38.1726 4294967295
-101.859 -124.094 -66.131798 4294967295
-103.497 -138.286 -78.5839 4294967295
-114.421 -203.351 -78.6903 4294967295
-117.24 -236.716 -128.194 4294967295
-117.961 -254.98599 -141.259 4294967295
-118.767 -327.021 -141.259 4294967295
-117.316 -370.23401 -141.259 4294967295
-133.32001 -391.24399 -132.27499 4294967295
-116.837 -390.63199 -132.94299 4294967295
-132.099 -403.09399 -109.786 4294967295
-113.944 -403.06299 -110.022 4294967295
-110.38 -429.16101 -104.55 4294967295
-130.02499 -422.58301 -104.55 4294967295
-90.747299 -96.273804 -45.603199 4294967295
-95.659897 -137.287 -96.776199 4294967295
-105.044 -195.881 -96.773598 4294967295
-111.102 -239.77299 -160.185 4294967295
-111.14 -323.99701 -160.185 4294967295
-108.19 -379.01099 -160.185 4294967295
-107.236 -403.465 -160.185 4294967295
-105.003 -415.36401 -118.916 4294967295
-95.941101 -524.401 -118.915 4294967295
-13.2063 -78.732697 -361.96701 4294967295
-53.5877 -78.732697 -350.97 4294967295
-13.2063 -118.379 -361.98001 4294967295
-58.197498 -118.379 -350.901 4294967295
-13.2063 -158.19 -361.91101 4294967295
-59.643299 -158.19 -350.70499 4294967295
-63.580601 -229.903 -350.59698 4294967295
-64.446404 -270.86801 -350.599 4294967295
-13.2062 -312.67401 -361.84799 4294967295
-67.8088 -312.67401 -350.60699 4294967295
-13.2062 -369.89099 -361.80399 4294967295
-67.808701 -369.89001 -350.60199 4294967295
-67.808701 -425.17401 -350.34601 4294967295
-13.2061 -481.44601 -351.33701 4294967295
-66.772797 -480.94699 -340.961 4294967295
-13.2061 -519.06097 -325.957 4294967295
-63.222 -518.16699 -320.66 4294967295
-13.2061 -538.67798 -301.26999 4294967295
-56.725498 -537.75299 -299.91901 4294967295
-13.6695 -564.98499 -255.93201 4294967295
-43.5686 -565.185 -254.14 4294967295
-94.825996 -78.732697 -337.66101 4294967295
-98.539398 -118.379 -337.633 4294967295
-102.92 -158.189 -337.60101 4294967295
-106.24 -229.903 -337.237 4294967295
-107.974 -270.86801 -337.20001 4294967295
-110.979 -312.67401 -337.33899 4294967295
-111.897 -369.89001 -337.078 4294967295
-110.766 -425.17401 -337.11401 4294967295
-109.561 -479.98901 -321.06299 4294967295
-103.178 -515.29602 -303.66699 4294967295
-94.396004 -533.284 -285.22 4294967295
-80.6744 -561.92297 -246.815 4294967295
-137.27 -78.732597 -320.25601 4294967295
-136.468 -118.379 -320.30301 4294967295
-138.836 -158.189 -320.30801 4294967295
-142.5 -229.903 -320.07501 4294967295
-143.662 -270.86801 -320.035 4294967295
-144.07001 -312.67401 -320.14001 4294967295
-142.075 -369.89001 -320.255 4294967295
-138.19099 -425.17401 -315.57901 4294967295
-129.742 -479.02301 -300.961 4294967295
-121.906 -512.34998 -286.23401 4294967295
-108.814 -534.185 -267.63699 4294967295
-91.725601 -559.99701 -237.617 4294967295
-159.696 -78.732697 -288.802 4294967295
-161.819 -118.379 -288.728 4294967295
-164.62 -158.189 -288.85999 4294967295
-165.93401 -229.903 -288.586 4294967295
-167.049 -270.86801 -288.548 4294967295
-162.658 -312.67401 -288.81201 4294967295
-158.07401 -369.89001 -288.858 4294967295
-152.215 -425.17401 -286.802 4294967295
-147.524 -477.99399 -279.56 4294967295
-141.31599 -509.207 -267.62601 4294967295
-127.364 -533.539 -249.94501 4294967295
-115.01 -554.53699 -226.537 4294967295
-137.17799 -418.04501 -124.007 4294967295
-122.255 -510.40601 -104.55 4294967295
-124.629 -482.44101 -104.55 4294967295
0.00013767699 -636.62799 -163.438 4294967295
0.00014131999 -639.11298 -156.71201 4294967295
-83.941101 -550.75 -149.261 4294967295
13.4399 -673.53601 -130.56 4294967295
13.4398 -673.55499 -159.74001 4294967295
13.4399 -658.96198 -120.793 4294967295
17.129101 -638.526 -128.004 4294967295
17.129299 -634.38397 -148.67599 4294967295
40.701099 -1.4268301 -315.371 4294967295
46.4632 -1.42651 -353.68301 4294967295
13.2059 -1.42677 -362.02701 4294967295
13.2059 -1.42647 -315.37299 4294967295
90.444099 -1.4266599 -315.367 4294967295
90.447304 -1.42673 -337.76801 4294967295
130.69701 -1.42716 -315.37 4294967295
90.435303 -1.4270101 -287.892 4294967295
149.101 -1.42714 -287.892 4294967295
40.699902 -1.42682 -287.914 4294967295
13.206 -1.42689 -287.931 4294967295
40.698101 -1.42656 -253.427 4294967295
13.206 -1.42636 -253.42999 4294967295
90.455803 -1.42672 -253.424 4294967295
151.53101 -1.42722 -253.41901 4294967295
30.507401 -1.42682 -201.01401 4294967295
13.206 -1.42676 -201.015 4294967295
48.188599 -1.4268399 -201.013 4294967295
80.2929 -1.42665 -214.06799 4294967295
99.046097 -1.42679 -214.06799 4294967295
137.87801 -1.42721 -214.069 4294967295
54.919102 -622.91498 -185.689 4294967295
20.3874 -623.14001 -187.651 4294967295
18.9946 -584.09302 -201.088 4294967295
56.459099 -588.633 -197.80701 4294967295
57.9762 -654.81702 -169.70399 4294967295
20.073601 -653.39398 -174.283 4294967295
76.656303 -623.77301 -180.039 4294967295
67.612801 -585.59003 -197.188 4294967295
100.973 -597.909 -184.082 4294967295
95.145103 -580.78998 -194.595 4294967295
103.6 -572.79199 -191.242 4294967295
111.991 -587.03497 -183.681 4294967295
50.789501 -644.19 -150.41901 4294967295
18.9258 -657.45398 -140.052 4294967295
80.959297 -621.57501 -161.59 4294967295
99.633301 -603.57599 -162.118 4294967295
111.348 -566.00201 -183.765 4294967295
117.49 -575.59003 -178.55701 4294967295
115.031 -562.73602 -167.592 4294967295
121.243 -572.72302 -166.198 4294967295
114.037 -569.51599 -159.08701 4294967295
119.534 -580.03003 -158.964 4294967295
93.567001 -600.86102 -160.51401 4294967295
111.603 -578.03601 -157.94901 4294967295
75.642197 -620.60699 -160.69701 4294967295
85.209602 -562.49298 -136.819 4294967295
105.274 -568.146 -140.96001 4294967295
118.958 -535.888 -104.551 4294967295
103.271 -525.45599 -104.551 4294967295
71.074501 -585.08301 -150.87 4294967295
85.449898 -596.33899 -155.991 4294967295
55.916698 -604.57001 -157.63 4294967295
70.1791 -617.52301 -157.5 4294967295
36.323799 -622.47302 -155.737 4294967295
48.886799 -639.60797 -154.12601 4294967295
34.118801 -649.62799 -144.84599 4294967295
48.738499 -597.086 -165.306 4294967295
16.881001 -624.96002 -164.658 4294967295
71.780197 -568.71802 -154.48199 4294967295
121.326 -551.00702 -214.99699 4294967295
120.943 -543.34302 -196.78 4294967295
134.89999 -529.38599 -231.39301 4294967295
130.05 -521.495 -208.41299 4294967295
147.89999 -504.87601 -241.991 4294967295
144.70799 -500.03601 -213.209 4294967295
158.366 -425.17401 -252.30099 4294967295
155.80299 -425.17401 -212.85699 4294967295
146.89999 -474.797 -213.108 4294967295
151.603 -476.461 -247.705 4294967295
162.948 -369.89001 -252.14301 4294967295
159.13901 -369.89001 -212.742 4294967295
166.284 -312.67401 -252.064 4294967295
161.132 -312.47501 -212.673 4294967295
160.69501 -296.71399 -212.688 4294967295
168.179 -270.86801 -251.883 4294967295
161.407 -275.11401 -212.664 4294967295
160.96899 -258.53699 -212.679 4294967295
168.175 -229.903 -252.039 4294967295
160.43401 -237.50999 -212.69701 4294967295
158.75101 -221.463 -212.755 4294967295
166.61 -158.189 -252.026 4294967295
160.30701 -158.189 -212.702 4294967295
164.384 -118.379 -251.974 4294967295
155.549 -118.379 -212.866 4294967295
161.593 -78.732597 -252.13 4294967295
152.17999 -78.732597 -212.98199 4294967295
122.01 -537.18701 -177.037 4294967295
122.823 -534.01398 -156.224 4294967295
130.291 -514.909 -177.85899 4294967295
127.759 -509.42401 -154.722 4294967295
128.955 -506.758 -129.064 4294967295
126.296 -529.07501 -130.39 4294967295
141.02 -493.84698 -176.595 4294967295
133.033 -489.91901 -153.459 4294967295
145.30499 -471.18701 -176.60899 4294967295
135.276 -471.18701 -135.748 4294967295
134.896 -483.39999 -135.74699 4294967295
130.828 -483.39999 -124.226 4294967295
148.88901 -440.70599 -176.5 4294967295
141.30499 -440.70499 -135.74699 4294967295
139.72701 -459.815 -135.748 4294967295
145.922 -459.815 -176.603 4294967295
138.612 -428.78601 -135.74699 4294967295
147.15601 -428.78601 -176.56 4294967295
137.946 -418.04501 -135.748 4294967295
149.29401 -369.89001 -176.48599 4294967295
143.791 -369.89001 -158.884 4294967295
146.937 -323.815 -158.77499 4294967295
135.408 -323.94699 -141.259 4294967295
134.578 -369.89001 -141.259 4294967295
150.647 -323.815 -176.621 4294967295
150.647 -312.474 -176.621 4294967295
150.647 -296.71301 -176.621 4294967295
150.647 -275.11401 -176.621 4294967295
150.647 -237.50999 -176.621 4294967295
150.647 -258.53601 -176.621 4294967295
150.647 -210.57201 -176.621 4294967295
150.647 -221.463 -176.621 4294967295
147.42599 -210.57201 -158.758 4294967295
135.508 -253.157 -141.259 4294967295
133.155 -235.94501 -128.834 4294967295
129.508 -207.841 -126.418 4294967295
131.558 -203.108 -78.691803 4294967295
148.01801 -158.189 -176.53 4294967295
143.52299 -159.246 -158.89301 4294967295
140.45 -145.644 -158.99899 4294967295
145.515 -118.379 -176.617 4294967295
141.021 -127.521 -158.98 4294967295
136.653 -114.046 -159.13 4294967295
138.741 -78.732498 -176.851 4294967295
133.285 -78.732498 -159.24699 4294967295
125.671 -159.245 -117.803 4294967295
125.671 -171.862 -117.803 4294967295
127.543 -171.862 -101.841 4294967295
125.671 -127.521 -117.803 4294967295
125.671 -145.644 -117.803 4294967295
126.751 -99.341202 -101.869 4294967295
124.534 -136.933 -78.999603 4294967295
120.171 -122.361 -64.340103 4294967295
125.671 -99.341003 -117.803 4294967295
125.671 -114.046 -117.803 4294967295
120.65 -78.732597 -57.249802 4294967295
117.671 -108.615 -38.990398 4294967295
114.108 -16.991699 -57.249802 4294967295
111.666 -20.6064 -34.2285 4294967295
116.891 -23.6782 -19.055599 4294967295
122.895 -102.814 -27.789301 4294967295
87.903198 -2.4765201 -13.6583 4294967295
100.22 -103.539 -27.4324 4294967295
113.695 15.5982 -15.5858 4294967295
108.614 18.4666 -7.4628301 4294967295
106.792 16.1761 -30.453699 4294967295
108.059 17.396299 -57.249802 4294967295
83.011299 21.8139 -3.36498 4294967295
82.710297 6.5039501 -2.86043 4294967295
51.8927 30.225 31.7101 4294967295
50.6357 13.5048 32.6852 4294967295
31.6327 37.629101 54.5364 4294967295
31.612 18.890699 54.329102 4294967295
13.2061 40.0672 63.728298 4294967295
13.2061 21.004601 63.357899 4294967295
31.243299 34.867901 29.2031 4294967295
31.624001 28.845501 -6.4952998 4294967295
31.658001 23.9405 -44.1936 4294967295
31.633801 25.218 -30.582199 4294967295
82.857101 15.8818 -30.5203 4294967295
82.7798 14.7962 -57.249901 4294967295
136.94901 -24.5846 -181.521 4294967295
135.40199 -26.998699 -159.24899 4294967295
141.049 -33.7855 -199.687 4294967295
143.151 -30.037399 -213.29401 4294967295
140.13 -13.6456 -213.73801 4294967295
131.23399 8.8872805 -185.06799 4294967295
122.22 -1.42689 -182.38 4294967295
99.045998 -1.42635 -182.38 4294967295
99.046204 -1.42549 -156.666 4294967295
117.952 -1.42551 -156.66701 4294967295
80.290298 -1.42618 -182.38 4294967295
48.196899 -1.42606 -169.32401 4294967295
48.197399 -1.42581 -143.61 4294967295
80.284302 -1.4255 -156.666 4294967295
30.4986 -1.42585 -143.61099 4294967295
30.500099 -1.42549 -169.323 4294967295
13.206 -1.42537 -169.323 4294967295
13.206 -1.42555 -143.61 4294967295
77.867699 -8.2930603 -45.6049 4294967295
99.013496 -109.434 -38.172699 4294967295
101.859 -124.094 -66.131897 4294967295
103.497 -138.286 -78.584 4294967295
114.421 -203.351 -78.690399 4294967295
117.24 -236.716 -128.19501 4294967295
117.961 -254.98599 -141.259 4294967295
117.316 -370.23401 -141.259 4294967295
118.768 -327.021 -141.259 4294967295
116.837 -390.63199 -132.94299 4294967295
133.321 -391.24399 -132.27499 4294967295
113.944 -403.06299 -110.023 4294967295
132.099 -403.09299 -109.786 4294967295
122.255 -510.40601 -104.551 4294967295
124.629 -482.44101 -104.551 4294967295
130.02499 -422.58301 -104.551 4294967295
110.38 -429.16101 -104.551 4294967295
90.747299 -96.273697 -45.603298 4294967295
95.659897 -137.287 -96.776299 4294967295
105.044 -195.881 -96.773697 4294967295
111.101 -239.772 -160.185 4294967295
108.19 -379.01099 -160.185 4294967295
111.14 -323.99701 -160.185 4294967295
107.236 -403.465 -160.185 4294967295
105.003 -415.36401 -118.916 4294967295
95.941299 -524.40002 -118.915 4294967295
53.587399 -78.732697 -350.97 4294967295
58.197201 -118.379 -350.901 4294967295
59.643002 -158.19 -350.70499 4294967295
13.206 -158.19 -361.91101 4294967295
63.580299 -229.903 -350.59698 4294967295
13.206 -229.903 -361.71799 4294967295
64.446198 -270.86801 -350.60001 4294967295
13.206 -270.86801 -361.79901 4294967295
67.808601 -312.67401 -350.608 4294967295
67.808701 -369.89099 -350.60199 4294967295
67.808601 -425.17401 -350.34601 4294967295
13.2061 -425.17401 -361.75201 4294967295
66.772598 -480.94699 -340.96201 4294967295
13.2061 -481.44601 -351.33701 4294967295
63.222 -518.16602 -320.66 4294967295
56.725601 -537.75299 -299.91901 4294967295
43.568699 -565.185 -254.14 4294967295
13.6696 -564.98499 -255.93201 4294967295
94.8256 -78.732597 -337.66199 4294967295
98.539001 -118.379 -337.633 4294967295
102.92 -158.189 -337.60101 4294967295
106.239 -229.903 -337.237 4294967295
107.974 -270.86801 -337.20001 4294967295
110.979 -312.67401 -337.33899 4294967295
111.897 -369.89001 -337.078 4294967295
110.766 -425.17401 -337.11401 4294967295
109.561 -479.98901 -321.064 4294967295
103.178 -515.29602 -303.66699 4294967295
94.396004 -533.28302 -285.22 4294967295
80.674698 -561.922 -246.81599 4294967295
137.269 -78.732498 -320.25601 4294967295
136.467 -118.379 -320.30301 4294967295
138.83501 -158.189 -320.30801 4294967295
142.5 -229.903 -320.07501 4294967295
143.662 -270.86801 -320.035 4294967295
144.07001 -312.67401 -320.14001 4294967295
142.075 -369.89001 -320.255 4294967295
138.19099 -425.17401 -315.57901 4294967295
129.742 -479.022 -300.961 4294967295
121.906 -512.34998 -286.23401 4294967295
108.814 -534.185 -267.63699 4294967295
91.7258 -559.99701 -237.617 4294967295
159.696 -78.732597 -288.802 4294967295
161.819 -118.379 -288.728 4294967295
164.62 -158.189 -288.86099 4294967295
165.93401 -229.903 -288.586 4294967295
167.049 -270.86801 -288.548 4294967295
162.658 -312.67401 -288.81201 4294967295
158.073 -369.89001 -288.858 4294967295
152.215 -425.17401 -286.802 4294967295
147.524 -477.99301 -279.561 4294967295
141.31599 -509.207 -267.62601 4294967295
127.364 -533.539 -249.94501 4294967295
115.01 -554.53802 -226.537 4294967295
137.17799 -418.04501 -124.007 4294967295
83.941299 -550.75 -149.261 4294967295
0.000117304 -636.62799 -163.438 4294967295
0.000120947 -639.11298 -156.71201 4294967295
0.00010957 -617.76703 -163.091 4294967295
9.5850402e-05 -590.49402 -169.131 4294967295
-48.7383 -597.086 -165.306 4294967295
-19.2355 -571.03998 -160.681 4294967295
8.9637797e-05 -569.98102 -163.076 4294967295
8.7729e-05 -524.401 -118.916 4294967295
-16.9263 -524.40002 -118.916 4294967295
-17.3183 -545.547 -161.73 4294967295
-9.9215002e-05 -8.2687902 -45.604801 4294967295
-77.867699 -8.2931995 -45.604801 4294967295
-90.747398 -96.273598 -45.603199 4294967295
-63.005402 -96.273499 -45.604301 4294967295
-70.195801 -137.287 -96.779503 4294967295
-65.632797 -118.283 -96.784599 4294967295
-7.3143899e-05 -118.283 -96.789001 4294967295
-6.24967e-05 -96.273598 -45.605 4294967295
-76.500198 -193.315 -96.778 4294967295
-4.1834399e-05 -193.315 -96.779701 4294967295
-111.102 -239.772 -160.185 4294967295
-80.061203 -239.772 -160.185 4294967295
-78.434601 -216.011 -160.185 4294967295
-4.7016201e-05 -239.772 -160.185 4294967295
-5.6929999e-05 -216.011 -160.185 4294967295
1.10789e-05 -379.01099 -160.185 4294967295
-1.21966e-05 -323.22601 -160.185 4294967295
-16.926399 -379.01099 -160.185 4294967295
-16.926399 -403.465 -160.185 4294967295
-16.926399 -415.36401 -118.918 4294967295
4.2195999e-05 -415.26999 -118.916 4294967295
-55.1889 -571.948 -163.47 4294967295
16.9265 -524.401 -118.916 4294967295
19.2356 -571.03998 -160.681 4294967295
17.318399 -545.547 -161.73 4294967295
83.941299 -550.74902 -149.261 4294967295
16.926399 -415.36401 -118.918 4294967295
63.005299 -96.273499 -45.604401 4294967295
90.7472 -96.273499 -45.603298 4294967295
77.867699 -8.2928104 -45.6049 4294967295
70.1959 -137.287 -96.779503 4294967295
65.632698 -118.283 -96.784698 4294967295
76.500099 -193.315 -96.778099 4294967295
80.061096 -239.772 -160.185 4294967295
78.434502 -216.011 -160.185 4294967295
16.926399 -379.01099 -160.185 4294967295
16.926399 -403.465 -160.185 4294967295
55.189098 -571.94702 -163.47 4294967295
-141.84 -483.39999 -123.546 4294967295
-146.064 -483.39999 -135.74699 4294967295
-145.67999 -418.04501 -123.591 4294967295
-146.064 -471.18701 -135.74699 4294967295
-146.065 -459.815 -135.74699 4294967295
-139.72701 -459.815 -135.74699 4294967295
-146.064 -440.70599 -135.74699 4294967295
-148.888 -440.70599 -176.5 4294967295
-146.064 -428.78601 -135.74699 4294967295
-146.065 -418.04501 -135.74699 4294967295
-169.02499 -312.474 -176.62 4294967295
-169.02499 -296.71301 -176.62 4294967295
-160.69501 -296.71301 -212.688 4294967295
-169.02499 -275.11401 -176.621 4294967295
-169.02499 -258.53601 -176.621 4294967295
-160.96899 -258.53601 -212.67799 4294967295
-160.43401 -237.50999 -212.69701 4294967295
-169.02499 -237.511 -176.621 4294967295
-169.02499 -221.464 -176.621 4294967295
-158.75101 -221.463 -212.755 4294967295
-162.97301 -210.57201 -158.09399 4294967295
-169.02499 -210.57201 -176.621 4294967295
-150.647 -312.474 -176.62 4294967295
-162.97301 -323.815 -158.30299 4294967295
-169.02499 -323.815 -176.62 4294967295
-150.647 -323.815 -176.62 4294967295
-150.647 -296.71399 -176.62 4294967295
-150.647 -237.50999 -176.621 4294967295
-162.97301 -248.32001 -158.164 4294967295
-162.97301 -286.06699 -158.233 4294967295
-150.647 -221.463 -176.621 4294967295
-147.42599 -210.57201 -158.758 4294967295
-140.75101 -159.245 -117.803 4294967295
-140.75101 -145.644 -117.803 4294967295
-140.75101 -171.862 -117.803 4294967295
-142.353 -171.862 -101.329 4294967295
-140.75101 -127.521 -117.803 4294967295
-140.75101 -114.046 -117.803 4294967295
-125.671 -159.245 -117.802 4294967295
-126.751 -99.341003 -101.868 4294967295
-138.87801 -99.341103 -101.449 4294967295
-125.671 -99.340797 -117.803 4294967295
-140.75101 -99.341103 -117.803 4294967295
146.065 -483.39999 -135.74699 4294967295
141.84 -483.39999 -123.546 4294967295
145.67999 -418.04501 -123.591 4294967295
146.065 -471.18701 -135.748 4294967295
145.922 -459.814 -176.60201 4294967295
146.065 -459.814 -135.748 4294967295
139.72701 -459.814 -135.748 4294967295
146.065 -440.70499 -135.74699 4294967295
148.88901 -440.70499 -176.5 4294967295
146.065 -428.78601 -135.74699 4294967295
146.065 -418.04401 -135.748 4294967295
137.946 -418.04501 -135.74699 4294967295
135.276 -471.18701 -135.74699 4294967295
169.02499 -296.71301 -176.621 4294967295
169.02499 -312.474 -176.621 4294967295
160.96899 -258.53601 -212.679 4294967295
169.02499 -258.53601 -176.621 4294967295
169.02499 -275.11401 -176.621 4294967295
161.407 -275.11401 -212.66299 4294967295
169.02499 -221.463 -176.621 4294967295
169.02499 -237.50999 -176.621 4294967295
169.02499 -210.57201 -176.621 4294967295
162.97301 -210.57201 -158.09399 4294967295
169.02499 -323.815 -176.621 4294967295
162.97301 -323.815 -158.30299 4294967295
140.75101 -145.644 -117.803 4294967295
140.75101 -159.245 -117.803 4294967295
143.52299 -159.245 -158.89301 4294967295
142.353 -171.862 -101.329 4294967295
140.75101 -171.862 -117.803 4294967295
141.021 -127.521 -158.979 4294967295
140.75101 -114.046 -117.803 4294967295
140.75101 -127.52 -117.803 4294967295
138.87801 -99.340897 -101.45 4294967295
126.751 -99.340897 -101.868 4294967295
140.75101 -99.340698 -117.803 4294967295
125.671 -99.340897 -117.803 4294967295
162.97301 -286.06699 -158.23399 4294967295
162.97301 -248.32001 -158.164 4294967295
-134.80901 -61.724602 -78.784401 4294967295
-120.65 -78.732399 -57.2495 4294967295
-114.108 -16.991501 -57.249599 4294967295
-130.08299 -20.050699 -78.784401 4294967295
-108.059 17.3962 -57.249599 4294967295
-124.5 24.0748 -78.784401 4294967295
-82.7799 14.7962 -57.249599 4294967295
-90.872101 32.746601 -78.784401 4294967295
-31.658001 23.940599 -44.1936 4294967295
-44.8465 43.5275 -65.7285 4294967295
1.25314e-05 48.728699 -61.8885 4294967295
-4.3902201e-06 70.232697 -82.406898 4294967295
-52.599899 63.6852 -86.246803 4294967295
-106.995 53.435101 -99.302803 4294967295
-162.662 40.512901 -99.302803 4294967295
-164.242 -12.9248 -99.302803 4294967295
-166.661 -43.527 -99.302803 4294967295
-165.317 -43.452801 -139.806 4294967295
-154.30701 -61.240601 -156.498 4294967295
-133.285 -78.732597 -159.24699 4294967295
-153.819 -22.005699 -156.634 4294967295
-164.13699 -12.9937 -139.806 4294967295
-52.600101 57.710602 -126.75 4294967295
-1.7329099e-05 63.634201 -122.91 4294967295
-1.93098e-05 52.7547 -139.739 4294967295
-30.5079 47.400902 -143.57899 4294967295
-48.195999 44.289799 -143.578 4294967295
-80.294098 39.503799 -156.634 4294967295
-106.986 47.459702 -139.806 4294967295
-99.046501 31.3095 -156.634 4294967295
-151.748 20.7773 -156.634 4294967295
-160.20799 34.9217 -139.806 4294967295
-148.355 -20.5581 -182.379 4294967295
-136.94901 -24.5844 -181.52 4294967295
-143.31799 5.2441301 -182.379 4294967295
-149.83501 -28.9923 -199.951 4294967295
-148.259 -18.440701 -209.601 4294967295
-141.049 -33.785599 -199.687 4294967295
-149.12199 -26.3522 -209.674 4294967295
-80.294197 21.244101 -182.38 4294967295
-99.045799 20.673401 -182.38 4294967295
-80.293098 -1.42665 -214.06799 4294967295
-99.046303 -1.42677 -214.067 4294967295
-30.5077 23.0506 -169.32401 4294967295
-48.193298 17.539301 -169.32401 4294967295
-126.256 25.4184 -156.634 4294967295
-131.23399 8.8871803 -185.06799 4294967295
-30.5075 -1.42646 -201.01401 4294967295
-48.188702 -1.42652 -201.013 4294967295
-48.197601 -1.42548 -143.61 4294967295
-80.2845 -1.42548 -156.666 4294967295
-48.196999 -1.42573 -169.32401 4294967295
-80.290398 -1.4261 -182.38 4294967295
-99.046204 -1.42634 -182.38 4294967295
-99.046303 -1.42549 -156.666 4294967295
-117.952 -1.42549 -156.666 4294967295
-122.22 -1.42689 -182.38 4294967295
-5.3128801e-06 15.6419 -143.57899 4294967295
-13.5124 15.637 -143.597 4294967295
-13.2061 -1.42542 -143.61 4294967295
-30.4988 -1.42548 -143.61099 4294967295
-30.5002 -1.42542 -169.323 4294967295
2.84821e-05 30.495701 -40.3536 4294967295
-140.13 -13.6455 -213.73801 4294967295
130.08299 -20.0506 -78.7845 4294967295
114.108 -16.9914 -57.249699 4294967295
120.65 -78.732399 -57.249699 4294967295
134.81 -61.7244 -78.7845 4294967295
124.5 24.0749 -78.7845 4294967295
108.06 17.396299 -57.249699 4294967295
90.8722 32.746601 -78.7845 4294967295
82.779999 14.7963 -57.249699 4294967295
44.8465 43.527599 -65.7285 4294967295
31.6581 23.940599 -44.1936 4294967295
52.599899 63.6852 -86.246902 4294967295
106.995 53.435101 -99.302902 4294967295
162.662 40.513 -99.302902 4294967295
164.242 -12.9246 -99.302902 4294967295
166.661 -43.526901 -99.302902 4294967295
154.30701 -61.240501 -156.49899 4294967295
165.31799 -43.452801 -139.806 4294967295
135.40199 -26.9984 -159.24899 4294967295
153.819 -22.0056 -156.63499 4294967295
164.13699 -12.9935 -139.806 4294967295
30.507799 47.400902 -143.578 4294967295
52.599998 57.710602 -126.75 4294967295
48.1959 44.289902 -143.57899 4294967295
106.986 47.459801 -139.806 4294967295
80.293999 39.503899 -156.63499 4294967295
99.046402 31.309601 -156.63499 4294967295
160.20799 34.921799 -139.806 4294967295
151.748 20.7775 -156.63499 4294967295
136.94901 -24.584299 -181.52 4294967295
148.355 -20.557899 -182.379 4294967295
143.31799 5.2442698 -182.38 4294967295
149.12199 -26.351999 -209.674 4294967295
148.259 -18.4405 -209.601 4294967295
149.83501 -28.9921 -199.951 4294967295
99.045799 20.6735 -182.38 4294967295
80.294098 21.2442 -182.38 4294967295
99.046204 -1.42669 -214.06799 4294967295
80.2929 -1.4265701 -214.06799 4294967295
48.193199 17.5394 -169.32401 4294967295
30.5077 23.0506 -169.32401 4294967295
131.23399 8.8873301 -185.06799 4294967295
126.256 25.4186 -156.63499 4294967295
48.188702 -1.42645 -201.013 4294967295
30.5075 -1.4263901 -201.01401 4294967295
80.2845 -1.42541 -156.666 4294967295
48.197498 -1.42541 -143.61 4294967295
48.196899 -1.42566 -169.32401 4294967295
80.290398 -1.42608 -182.38 4294967295
99.046204 -1.42626 -182.38 4294967295
99.046303 -1.42541 -156.666 4294967295
117.952 -1.42541 -156.666 4294967295
122.22 -1.4267499 -182.38 4294967295
13.2061 -1.42541 -143.61 4294967295
30.4988 -1.42541 -143.61 4294967295
30.5002 -1.42535 -169.323 4294967295
140.13 -13.6453 -213.73801 4294967295
-165.317 -43.4529 -139.806 4294967295
-166.661 -43.5271 -99.302803 4294967295
-160.20799 34.9216 -139.806 4294967295
-106.995 53.435001 -99.302803 4294967295
-106.986 47.459599 -139.806 4294967295
-52.599899 63.6852 -86.246902 4294967295
-3.9890501e-06 70.232803 -82.406898 4294967295
-1.6927999e-05 63.634102 -122.91 4294967295
164.242 -12.9247 -99.302902 4294967295
166.662 -43.526901 -99.302902 4294967295
160.20799 34.9217 -139.806 4294967295
162.662 40.512901 -99.302902 4294967295
106.996 53.435101 -99.302902 4294967295
52.599899 63.685299 -86.246902 4294967295
3.66081 -496.56601 87.040199 4294967295
7.68296 -506.276 97.194298 4294967295
-7.68293 -506.276 97.194199 4294967295
-3.66079 -496.56601 87.040199 4294967295
8.5010796 -508.25101 115.781 4294967295
-8.50103 -508.25101 115.781 4294967295
9.96068 -511.77499 117.562 4294967295
-9.9606304 -511.77499 117.562 4294967295
9.96068 -511.77499 121.863 4294967295
-9.9606304 -511.77499 121.863 4294967295
6.4105201 -503.20401 120.082 4294967295
-6.41047 -503.20401 120.082 4294967295
5.5924001 -501.229 104.051 4294967295
-5.59237 -501.229 104.051 4294967295
2.7621701 -494.396 104.407 4294967295
-2.76215 -494.396 104.407 4294967295
-3.6608 -478.88901 87.040199 4294967295
-7.68294 -469.17899 97.194199 4294967295
7.68294 -469.17899 97.194199 4294967295
3.6608 -478.88901 87.040199 4294967295
-8.50105 -467.20401 115.781 4294967295
8.5010595 -467.20401 115.781 4294967295
-9.9606504 -463.67999 117.562 4294967295
9.96066 -463.67999 117.562 4294967295
-9.9606504 -463.67999 121.863 4294967295
9.96066 -463.67999 121.863 4294967295
-6.41049 -472.25101 120.082 4294967295
6.4105 -472.25101 120.082 4294967295
-5.59238 -474.22601 104.051 4294967295
5.5923901 -474.22601 104.051 4294967295
-2.76215 -481.05899 104.407 4294967295
2.7621701 -481.05899 104.407 4294967295
-8.8379698 -484.06699 87.040199 4294967295
-13.6931 -482.056 92.117302 4294967295
-18.548201 -480.04501 97.194199 4294967295
-20.5233 -479.22601 115.781 4294967295
-24.0471 -477.767 117.562 4294967295
-24.0471 -477.767 121.863 4294967295
-15.4763 -481.31699 120.082 4294967295
-13.5012 -482.13501 104.051 4294967295
-6.6684399 -484.965 104.407 4294967295
-13.6931 -493.39999 92.117302 4294967295
-18.548201 -495.41101 97.194298 4294967295
-20.5233 -496.229 115.781 4294967295
-24.0471 -497.68799 117.562 4294967295
-24.0471 -497.68799 121.863 4294967295
-15.4763 -494.138 120.082 4294967295
-13.5012 -493.32001 104.051 4294967295
-6.6684399 -490.48999 104.407 4294967295
18.5483 -480.04501 97.194199 4294967295
13.6931 -482.056 92.117302 4294967295
20.523399 -479.22601 115.781 4294967295
24.047199 -477.76599 117.562 4294967295
24.047199 -477.76599 121.863 4294967295
15.4763 -481.31699 120.082 4294967295
13.5012 -482.13501 104.051 4294967295
6.6684499 -484.965 104.407 4294967295
13.6931 -487.728 92.117302 4294967295
18.5483 -495.41 97.194298 4294967295
20.523399 -496.228 115.781 4294967295
24.047199 -497.68799 117.562 4294967295
24.047199 -497.68799 121.863 4294967295
15.4763 -494.138 120.082 4294967295
13.5012 -493.32001 104.051 4294967295
6.6684599 -490.48999 104.407 4294967295
8.8379698 -491.388 87.040199 4294967295
13.6931 -493.39899 92.117302 4294967295
-13.6931 -487.728 92.117203 4294967295
-8.8379602 -491.388 87.040199 4294967295
8.8379698 -484.06699 87.040199 4294967295
11.0444 -514.39099 -112.355 4294967295
11.0444 -514.39099 -106.962 4294967295
-11.0445 -514.39099 -106.963 4294967295
-11.0445 -514.39099 -112.355 4294967295
4.4788399 -498.54099 -106.963 4294967295
-4.4789801 -498.54099 -106.963 4294967295
1.25019 -490.746 324.45401 4294967295
-1.25 -490.746 324.45401 4294967295
-11.0445 -461.064 -112.355 4294967295
-11.0445 -461.064 -106.963 4294967295
11.0444 -461.064 -106.962 4294967295
11.0444 -461.064 -112.355 4294967295
-4.4789901 -476.914 -106.963 4294967295
4.4788299 -476.914 -106.962 4294967295
-1.25 -484.70999 324.45401 4294967295
1.25019 -484.70999 324.45401 4294967295
-26.663799 -476.68301 -112.355 4294967295
-26.663799 -476.68301 -106.962 4294967295
-10.8131 -483.24899 -106.963 4294967295
-3.01789 -486.47699 324.45401 4294967295
-26.663799 -498.772 -112.355 4294967295
-26.663799 -498.772 -106.963 4294967295
-10.8131 -492.207 -106.963 4294967295
-8.8379602 -487.728 87.040199 4294967295
-3.01789 -488.978 324.45401 4294967295
3.01808 -488.978 324.45401 4294967295
3.01808 -486.47699 324.45401 4294967295
26.663601 -476.68301 -106.963 4294967295
26.6637 -476.68301 -112.355 4294967295
10.813 -483.24899 -106.962 4294967295
26.663601 -498.772 -106.963 4294967295
26.663601 -498.772 -112.356 4294967295
8.8379698 -487.728 87.040199 4294967295
10.813 -492.207 -106.963 4294967295
7.9196701 -506.84698 -136.12 4294967295
7.9196801 -506.84799 -112.355 4294967295
-7.9198098 -506.84799 -112.355 4294967295
-7.9198198 -506.84698 -136.12 4294967295
-7.9198298 -468.608 -136.12 4294967295
-7.9198298 -468.608 -112.355 4294967295
7.9196601 -468.608 -112.355 4294967295
7.9196501 -468.608 -136.12 4294967295
-19.120001 -479.80801 -136.121 4294967295
-19.120001 -479.80801 -112.356 4294967295
-19.120001 -495.647 -136.121 4294967295
-19.120001 -495.64801 -112.356 4294967295
19.1199 -479.80701 -136.12 4294967295
19.1199 -479.80801 -112.355 4294967295
19.1199 -495.64801 -112.355 4294967295
19.1199 -495.647 -136.12 4294967295
-139.793 -432.51999 -127.037 4294967295
-134.938 -434.53101 -132.114 4294967295
-134.938 -438.19199 -132.114 4294967295
-139.793 -438.19199 -127.037 4294967295
-134.938 -466.224 -132.114 4294967295
-134.938 -469.884 -132.114 4294967295
-139.793 -471.896 -127.037 4294967295
-139.793 -466.224 -127.037 4294967295
139.793 -438.19199 -127.037 4294967295
134.938 -438.19101 -132.114 4294967295
134.938 -434.53101 -132.114 4294967295
139.793 -432.51999 -127.037 4294967295
139.793 -466.224 -127.037 4294967295
139.793 -471.89499 -127.037 4294967295
134.938 -469.884 -132.114 4294967295
134.938 -466.22299 -132.114 4294967295
3.6608 -155.573 112.768 4294967295
7.68295 -165.284 122.922 4294967295
-7.68293 -165.284 122.922 4294967295
-3.6608 -155.573 112.768 4294967295
8.5010595 -167.259 141.509 4294967295
-8.50105 -167.259 141.509 4294967295
9.96066 -170.782 143.28999 4294967295
-9.96064 -170.782 143.28999 4294967295
9.9606705 -170.782 147.591 4294967295
-9.96064 -170.782 147.591 4294967295
6.4105101 -162.21201 145.81 4294967295
-6.41048 -162.21201 145.81 4294967295
5.5924001 -160.23599 129.77901 4294967295
-5.59237 -160.23599 129.77901 4294967295
2.7621701 -153.40401 130.13499 4294967295
-2.76215 -153.40401 130.13499 4294967295
-3.66081 -137.897 112.768 4294967295
-7.68295 -128.187 122.922 4294967295
7.68294 -128.187 122.922 4294967295
3.66079 -137.897 112.768 4294967295
-8.50105 -126.212 141.509 4294967295
8.5010595 -126.212 141.509 4294967295
-9.96066 -122.688 143.28999 4294967295
9.96064 -122.688 143.28999 4294967295
-9.96066 -122.688 147.591 4294967295
9.9606504 -122.688 147.591 4294967295
-6.41049 -131.259 145.81 4294967295
6.4105 -131.259 145.81 4294967295
-5.5923901 -133.23399 129.77901 4294967295
5.59238 -133.23399 129.77901 4294967295
-2.7621601 -140.067 130.13499 4294967295
2.7621601 -140.067 130.13499 4294967295
-8.8379803 -143.075 112.768 4294967295
-13.6931 -141.063 117.845 4294967295
-18.5483 -139.052 122.922 4294967295
-20.5233 -138.23399 141.509 4294967295
-24.0471 -136.77499 143.28999 4294967295
-24.0471 -136.77499 147.591 4294967295
-15.4763 -140.325 145.81 4294967295
-13.5012 -141.14301 129.77901 4294967295
-6.6684399 -143.97301 130.13499 4294967295
-13.6931 -152.407 117.845 4294967295
-18.5483 -154.418 122.922 4294967295
-20.5233 -155.23599 141.509 4294967295
-24.0471 -156.696 143.28999 4294967295
-24.0471 -156.696 147.591 4294967295
-15.4763 -153.146 145.81 4294967295
-13.5012 -152.328 129.77901 4294967295
-6.6684399 -149.498 130.13499 4294967295
18.5483 -139.052 122.922 4294967295
13.6931 -141.063 117.845 4294967295
20.523399 -138.23399 141.509 4294967295
24.047199 -136.774 143.28999 4294967295
24.047199 -136.774 147.591 4294967295
15.4763 -140.325 145.81 4294967295
13.5012 -141.14301 129.77901 4294967295
6.6684499 -143.97301 130.13499 4294967295
13.6931 -146.735 117.845 4294967295
18.5483 -154.418 122.922 4294967295
20.523399 -155.23599 141.509 4294967295
24.047199 -156.696 143.28999 4294967295
24.047199 -156.696 147.591 4294967295
15.4763 -153.146 145.81 4294967295
13.5012 -152.328 129.77901 4294967295
6.6684599 -149.498 130.13499 4294967295
8.8379602 -150.396 112.768 4294967295
13.6931 -152.407 117.845 4294967295
-13.6931 -146.735 117.845 4294967295
-8.8379698 -150.396 112.768 4294967295
8.8379498 -143.07401 112.768 4294967295
11.0444 -173.399 -86.627197 4294967295
11.0444 -173.399 -81.234299 4294967295
-11.0445 -173.399 -81.234398 4294967295
-11.0445 -173.399 -86.627296 4294967295
-4.4789801 -157.548 -81.234497 4294967295
4.4788399 -157.548 -81.234497 4294967295
1.25019 -149.75301 350.18201 4294967295
-1.25001 -149.75301 350.18201 4294967295
-11.0446 -120.072 -86.627296 4294967295
-11.0446 -120.072 -81.234497 4294967295
11.0444 -120.072 -81.234398 4294967295
11.0444 -120.072 -86.627197 4294967295
4.4788299 -135.922 -81.234497 4294967295
-4.4789901 -135.922 -81.234497 4294967295
-1.25001 -143.717 350.18201 4294967295
1.25018 -143.717 350.18201 4294967295
-26.663799 -135.69099 -86.627296 4294967295
-26.663799 -135.69099 -81.234497 4294967295
-10.8131 -142.256 -81.234497 4294967295
-3.0179 -145.485 350.18201 4294967295
-26.663799 -157.78 -86.627296 4294967295
-26.663799 -157.78 -81.234497 4294967295
-10.8131 -151.214 -81.234497 4294967295
-8.8379803 -146.735 112.768 4294967295
-3.01789 -147.985 350.18201 4294967295
3.01807 -147.985 350.18201 4294967295
3.01807 -145.485 350.18201 4294967295
26.663601 -135.69099 -81.234497 4294967295
26.663601 -135.69099 -86.627296 4294967295
10.813 -142.256 -81.234497 4294967295
26.663601 -157.78 -81.234497 4294967295
26.663601 -157.78 -86.627296 4294967295
10.813 -151.214 -81.234497 4294967295
8.8379498 -146.735 112.768 4294967295
7.9196701 -165.855 -110.392 4294967295
7.9196701 -165.855 -86.627296 4294967295
-7.9198098 -165.855 -86.627296 4294967295
-7.9198198 -165.855 -110.393 4294967295
-7.9198399 -127.615 -110.392 4294967295
-7.9198298 -127.615 -86.627296 4294967295
7.9196501 -127.615 -86.627296 4294967295
7.9196401 -127.615 -110.393 4294967295
-19.120001 -138.81599 -110.392 4294967295
-19.120001 -138.81599 -86.627403 4294967295
-19.1201 -154.655 -110.393 4294967295
-19.120001 -154.655 -86.627296 4294967295
19.1199 -138.815 -110.393 4294967295
19.1199 -138.81599 -86.627296 4294967295
19.1199 -154.655 -86.627296 4294967295
19.1199 -154.655 -110.392 4294967295
-139.793 -116.872 -105.917 4294967295
-134.938 -118.883 -110.994 4294967295
-134.938 -122.544 -110.994 4294967295
-139.793 -122.544 -105.917 4294967295
-134.938 -150.575 -110.994 4294967295
-134.938 -154.23599 -110.994 4294967295
-139.793 -156.24699 -105.917 4294967295
-139.793 -150.576 -105.917 4294967295
139.793 -122.543 -105.917 4294967295
134.938 -122.543 -110.994 4294967295
134.938 -118.883 -110.994 4294967295
139.793 -116.871 -105.917 4294967295
139.793 -150.575 -105.917 4294967295
139.793 -156.24699 -105.917 4294967295
134.938 -154.23599 -110.994 4294967295
134.938 -150.575 -110.994 4294967295
2.11694 27.3272 48.541199 4294967295
2.11695 29.106701 73.196404 4294967295
-1.10097e-05 28.231899 73.259598 4294967295
-1.9819399e-05 26.452499 48.604301 4294967295
4.70435 26.5261 73.3825 4294967295
-9.3849303e-06 24.5823 73.522903 4294967295
4.70435 26.765499 76.700401 4294967295
-8.1994303e-06 24.8218 76.840698 4294967295
8.4678497 23.9275 89.662003 4294967295
9.8791504 22.519899 89.763702 4294967295
-4.15161e-07 18.4384 90.058296 4294967295
-1.30143e-06 20.429199 89.914703 4294967295
9.8791599 22.735399 92.749802 4294967295
6.51893e-07 18.653799 93.044502 4294967295
2.11696 30.7409 95.840698 4294967295
-2.91848e-06 29.8661 95.903801 4294967295
4.70436 28.423599 99.676399 4294967295
1.03213e-08 26.480101 99.816902 4294967295
2.11696 31.1959 102.145 4294967295
-6.6598699e-07 30.321199 102.208 4294967295
1.88261e-05 37.513 160.26401 4294967295
2.99382 29.4387 48.388802 4294967295
2.99383 31.218 73.043999 4294967295
6.6529598 31.218 73.044098 4294967295
6.6529598 31.4576 76.361801 4294967295
11.9753 32.373501 89.052597 4294967295
13.9712 32.373501 89.052597 4294967295
13.9712 32.588902 92.038597 4294967295
2.99384 32.852402 95.688301 4294967295
6.6529698 33.115799 99.337799 4294967295
2.99384 33.3074 101.992 4294967295
2.11694 31.5502 48.2365 4294967295
2.11695 33.329601 72.891602 4294967295
4.70435 35.910301 72.705399 4294967295
4.70435 36.149799 76.023201 4294967295
8.4678297 40.819199 88.443001 4294967295
9.8791399 42.2271 88.341301 4294967295
9.8791504 42.442501 91.327599 4294967295
2.11695 34.963902 95.535896 4294967295
4.70436 37.808102 98.999298 4294967295
2.11696 35.4188 101.84 4294967295
-2.24782e-05 32.424702 48.173302 4294967295
-1.36686e-05 34.2043 72.8284 4294967295
-1.5293301e-05 37.853802 72.565002 4294967295
-1.41078e-05 38.0933 75.882797 4294967295
-1.19365e-05 44.317799 88.190498 4294967295
-1.28228e-05 46.308601 88.046799 4294967295
-1.17558e-05 46.523998 91.033096 4294967295
-5.5773198e-06 35.838402 95.472702 4294967295
-5.89809e-06 39.751598 98.858902 4294967295
-3.3248e-06 36.2934 101.777 4294967295
-2.1169801 31.5502 48.236401 4294967295
-2.1169701 33.329601 72.891602 4294967295
-4.70438 35.910198 72.705299 4294967295
-4.70439 36.149799 76.023201 4294967295
-8.4678698 40.819199 88.443001 4294967295
-9.87918 42.2271 88.341301 4294967295
-9.87918 42.4426 91.327599 4294967295
-2.11696 34.963902 95.536003 4294967295
-4.70438 37.807999 98.999298 4294967295
-2.11696 35.4188 101.84 4294967295
-2.99386 29.4387 48.388802 4294967295
-2.99385 31.218 73.043999 4294967295
-6.6529999 31.218 73.043999 4294967295
-6.6529899 31.4576 76.361801 4294967295
-11.9754 32.373501 89.052597 4294967295
-13.9713 32.373501 89.052597 4294967295
-13.9713 32.588902 92.038597 4294967295
-2.99384 32.852402 95.6884 4294967295
-6.6529799 33.115799 99.337799 4294967295
-2.99384 33.3074 101.992 4294967295
-2.1169801 27.327101 48.541302 4294967295
-2.1169701 29.106701 73.196404 4294967295
-4.70438 26.5261 73.3825 4294967295
-4.70438 26.765499 76.700401 4294967295
-8.4678602 23.9275 89.662102 4294967295
-9.87918 22.519899 89.763702 4294967295
-9.8791704 22.735399 92.749802 4294967295
-2.11696 30.7409 95.840698 4294967295
-4.70437 28.423599 99.676498 4294967295
-2.11696 31.1959 102.145 4294967295
-6.1992302 -560.73401 -182.48801 4294967295
-3.0854001 -788.633 -24.686001 4294967295
-4.3634601 -786.90503 -22.1297 4294967295
-8.7670002 -557.26202 -177.35201 4294967295
-6.9313501e-05 -562.172 -184.616 4294967295
8.7023502e-05 -789.349 -25.744801 4294967295
6.19908 -560.73401 -182.48801 4294967295
3.0855701 -788.633 -24.686001 4294967295
8.76686 -557.26202 -177.353 4294967295
4.3636198 -786.90503 -22.1297 4294967295
6.19908 -553.78998 -172.217 4294967295
3.0855701 -785.177 -19.5735 4294967295
-6.7782399e-05 -552.35303 -170.089 4294967295
8.7785498e-05 -784.461 -18.514601 4294967295
-6.1992202 -553.78998 -172.217 4294967295
-3.0854001 -785.177 -19.5734 4294967295
-200 -339.26001 122.81 4294967295
-240 -337.56299 121.349 4294967295
-240 -338.03101 120.375 4294967295
-200 -340.431 120.375 4294967295
-133.33299 -341.76501 120.375 4294967295
-100 -342.431 120.375 4294967295
-66.666603 -343.09799 120.375 4294967295
-33.333302 -343.76501 120.375 4294967295
-200 -336.431 123.819 4294967295
-240 -336.431 121.752 4294967295
3.56731e-05 -336.431 127.262 4294967295
3.7251699e-05 -342.08801 125.245 4294967295
-200 -333.603 122.81 4294967295
-240 -335.29999 121.349 4294967295
3.2531301e-05 -330.77399 125.245 4294967295
-200 -332.431 120.375 4294967295
-240 -334.83099 120.375 4294967295
2.96668e-05 -328.431 120.375 4294967295
-200 -333.603 117.94 4294967295
-240 -335.29999 119.401 4294967295
2.87574e-05 -330.77399 115.505 4294967295
-200 -336.431 116.931 4294967295
-240 -336.431 118.997 4294967295
3.07232e-05 -337.35901 113.487 4294967295
-200 -339.26001 117.94 4294967295
-240 -337.56299 119.401 4294967295
3.3478002e-05 -342.08801 115.505 4294967295
-33.333302 -341.617 115.911 4294967295
-66.666702 -341.14499 116.316 4294967295
-100 -340.67401 116.722 4294967295
200 -340.431 120.375 4294967295
240 -338.03101 120.375 4294967295
240 -337.56201 121.349 4294967295
200 -339.259 122.81 4294967295
166.66701 -341.09799 120.375 4294967295
240 -336.431 121.752 4294967295
200 -336.431 123.819 4294967295
240 -335.29999 121.349 4294967295
200 -333.603 122.81 4294967295
240 -334.83099 120.375 4294967295
200 -332.431 120.375 4294967295
240 -335.29999 119.401 4294967295
200 -333.603 117.94 4294967295
240 -336.431 118.997 4294967295
200 -336.431 116.931 4294967295
240 -337.56201 119.401 4294967295
200 -339.259 117.94 4294967295
166.66701 -339.73099 117.534 4294967295
3.6342499e-05 -344.431 120.375 4294967295
-133.33299 -340.203 117.128 4294967295
-166.66701 -339.73099 117.534 4294967295
33.333302 -343.76401 120.375 4294967295
133.33299 -340.202 117.128 4294967295
99.999901 -340.67401 116.722 4294967295
66.666603 -343.09799 120.375 4294967295
99.999901 -342.431 120.375 4294967295
66.666603 -341.14499 116.316 4294967295
33.333302 -341.617 115.91 4294967295
-166.66701 -341.09799 120.375 4294967295
133.33299 -341.76401 120.375 4294967295
-165.569 -369.13 95.058899 4294967295
-133.33299 -369.797 96.626503 4294967295
-100 -370.46301 96.626602 4294967295
-66.666702 -371.13 96.626503 4294967295
-33.333302 -371.797 96.626602 4294967295
3.8837501e-05 -372.46301 96.626503 4294967295
-129.606 -396.54501 62.129799 4294967295
-97.967697 -397.21201 64.549698 4294967295
-66.758904 -397.879 67.583702 4294967295
-33.425499 -398.54501 67.583702 4294967295
3.87461e-05 -399.21301 67.583397 4294967295
-65.245399 -417.17001 35.679298 4294967295
-33.496399 -421.12601 37.941799 4294967295
3.6683199e-05 -421.79401 37.941299 4294967295
-197.278 -352.33499 92.738998 4294967295
-192.843 -359.5 57.231701 4294967295
-161.285 -376.29501 59.766499 4294967295
-187.80701 -363.047 20.296499 4294967295
-156.461 -387.522 23.1339 4294967295
-124.986 -400.86099 25.7882 4294967295
-94.3069 -409.92001 29.5788 4294967295
-180.82201 -363.047 -24.667601 4294967295
-149.883 -387.522 -21.2493 4294967295
-119.854 -408.15701 -16.529499 4294967295
-91.636002 -418.80701 -9.2245302 4294967295
-62.832298 -426.76999 -2.7558701 4294967295
-33.496399 -430.39899 2.9528899 4294967295
2.5760701e-05 -428.104 2.9523499 4294967295
-171.23199 -349.60699 -72.029999 4294967295
-142.882 -374.082 -69.541603 4294967295
-116.397 -392.41299 -55.133301 4294967295
-88.6614 -404.215 -41.518799 4294967295
-60.181702 -407.57001 -34.5872 4294967295
-31.1936 -411.19901 -31.0268 4294967295
6.6288799e-06 -413.513 -30.714199 4294967295
-151.77901 -325.79901 -127.195 4294967295
-137.98 -344.13 -103.927 4294967295
-112.738 -363.229 -87.743301 4294967295
-85.613602 -381.55899 -73.2565 4294967295
-57.5144 -388.37 -65.781601 4294967295
-28.7925 -389.03601 -61.8409 4294967295
0.363042 -389.70401 -59.135101 4294967295
-133.33299 -363.37799 94.0625 4294967295
-97.967598 -390.79401 61.9856 4294967295
-129.60699 -390.12701 59.5658 4294967295
-100 -364.04501 94.062401 4294967295
-66.666603 -364.71201 94.0625 4294967295
-66.758904 -391.45999 65.019699 4294967295
-33.333302 -365.37799 94.0625 4294967295
-33.425499 -392.12701 65.0196 4294967295
3.5166198e-05 -366.04501 94.0625 4294967295
3.5074601e-05 -392.79401 65.019402 4294967295
-33.496399 -414.707 35.377701 4294967295
-65.245399 -410.75101 33.1152 4294967295
3.3011798e-05 -415.375 35.3773 4294967295
-165.569 -362.71201 92.494698 4294967295
-161.285 -369.87601 57.2024 4294967295
-156.461 -381.103 20.569799 4294967295
-124.986 -394.44199 23.2241 4294967295
-94.306999 -403.50201 27.0147 4294967295
-149.882 -381.104 -23.8134 4294967295
-119.854 -401.73801 -19.093599 4294967295
-91.636101 -412.38901 -11.7886 4294967295
-62.832298 -420.35101 -5.3199701 4294967295
-33.496399 -423.98099 0.388785 4294967295
2.20892e-05 -421.686 0.38824901 4294967295
-142.882 -367.66299 -72.105698 4294967295
-116.397 -385.99399 -57.697399 4294967295
-88.6614 -397.79599 -44.082901 4294967295
-60.181801 -401.151 -37.151402 4294967295
-31.1936 -404.78101 -33.5909 4294967295
2.9574701e-06 -407.09399 -33.278301 4294967295
165.569 -369.13 95.058701 4294967295
133.33299 -369.797 96.626503 4294967295
99.999901 -370.46301 96.626404 4294967295
66.666603 -371.13 96.626602 4294967295
33.333302 -371.797 96.626503 4294967295
97.967499 -397.21201 64.549599 4294967295
129.60699 -396.54501 62.1297 4294967295
66.758797 -397.879 67.583702 4294967295
33.425598 -398.54501 67.583603 4294967295
33.496498 -421.12601 37.941799 4294967295
65.245399 -417.17001 35.679199 4294967295
197.278 -352.33499 92.7388 4294967295
161.285 -376.29501 59.766399 4294967295
192.843 -359.5 57.231602 4294967295
156.461 -387.522 23.133801 4294967295
187.80701 -363.047 20.296301 4294967295
124.986 -400.85999 25.788099 4294967295
94.306999 -409.92001 29.578699 4294967295
149.882 -387.522 -21.249399 4294967295
180.82201 -363.047 -24.6677 4294967295
119.854 -408.15601 -16.5296 4294967295
91.635902 -418.80701 -9.2245998 4294967295
62.832298 -426.76999 -2.7559199 4294967295
33.496498 -430.39899 2.9528401 4294967295
142.882 -374.08099 -69.541801 4294967295
171.23199 -349.60699 -72.030197 4294967295
116.397 -392.41199 -55.1334 4294967295
88.6614 -404.215 -41.518902 4294967295
60.181702 -407.57001 -34.587399 4294967295
31.1936 -411.19901 -31.026899 4294967295
137.98 -344.13 -103.927 4294967295
151.77901 -325.79901 -127.195 4294967295
112.738 -363.228 -87.743401 4294967295
85.613403 -381.55899 -73.2565 4294967295
57.5144 -388.37 -65.781601 4294967295
28.7924 -389.03601 -61.841 4294967295
129.606 -390.12701 59.565701 4294967295
97.967697 -390.793 61.9855 4294967295
133.33299 -363.37799 94.062302 4294967295
66.758797 -391.45999 65.0196 4294967295
66.666603 -364.71201 94.062401 4294967295
99.999901 -364.04501 94.062302 4294967295
33.425499 -392.12701 65.019501 4294967295
33.333401 -365.37799 94.062401 4294967295
65.245399 -410.75101 33.115101 4294967295
33.496399 -414.707 35.377701 4294967295
165.569 -362.71201 92.494598 4294967295
161.285 -369.87601 57.202301 4294967295
156.461 -381.103 20.5697 4294967295
124.986 -394.44199 23.224001 4294967295
94.3069 -403.50201 27.014601 4294967295
149.882 -381.103 -23.813499 4294967295
119.854 -401.73801 -19.0937 4294967295
91.636002 -412.38901 -11.7887 4294967295
62.832298 -420.35199 -5.3200302 4294967295
33.496399 -423.98099 0.388735 4294967295
142.882 -367.66299 -72.105904 4294967295
116.397 -385.99399 -57.697498 4294967295
88.661301 -397.79599 -44.083 4294967295
60.181702 -401.151 -37.151402 4294967295
31.1936 -404.78101 -33.591 4294967295
49.847 -338.02899 331.26001 4294967295
74.761101 -337.36301 331.26001 4294967295
99.675201 -336.69601 331.26001 4294967295
124.589 -336.02899 331.26001 4294967295
179.401 -332.49399 332.07101 4294967295
