# .PCD v0.7 - Point Cloud Data file format
VERSION 0.7
FIELDS x y z rgba
SIZE 4 4 4 4
TYPE F F F U
COUNT 1 1 1 1
WIDTH 1127
HEIGHT 1
VIEWPOINT 0 0 0 1 0 0 0
POINTS 1127
DATA ascii
-3.9720473 -499.89523 -101.27512 4294967295
4.8659544 -496.05301 330.42667 4294967295
-0.62457806 -499.49484 323.31305 4294967295
-13.633765 -460.72556 -103.16421 4294967295
-28.452049 -466.79349 -101.71908 4294967295
15.050479 -465.60052 -100.91411 4294967295
6.905859 -453.57077 -118.74162 4294967295
-5.2664285 -482.07748 -109.3595 4294967295
8.3050871 -475.21048 -114.21922 4294967295
3.4048121 -489.84476 326.82675 4294967295
-5.7723937 -483.45987 326.49805 4294967295
-20.311844 -470.75693 -110.99214 4294967295
-19.687511 -479.2843 -109.54058 4294967295
-5.8062677 -480.99365 -105.50867 4294967295
-2.7787642 -485.01538 324.22144 4294967295
-24.038639 -503.79691 -103.12755 4294967295
-27.948931 -501.60751 -110.70085 4294967295
-5.5614214 -494.86331 -95.820068 4294967295
-2.5799129 -488.12094 96.89267 4294967295
-1.061121 -478.95477 332.10519 4294967295
14.093878 -478.24121 330.89832 4294967295
7.5543466 -486.98618 328.48389 4294967295
18.68018 -480.65558 -102.98817 4294967295
30.889503 -470.44876 -110.84818 4294967295
7.8055868 -483.0098 -106.3421 4294967295
33.688297 -496.10611 -98.579414 4294967295
26.008291 -498.41791 -114.01295 4294967295
9.8680563 -479.785 88.534431 4294967295
10.756823 -489.50342 -99.017448 4294967295
15.198302 -507.05969 -135.34979 4294967295
1.3136907 -499.29251 -111.9276 4294967295
-13.511408 -510.84964 -104.9503 4294967295
-6.7629852 -508.60062 -127.98031 4294967295
-14.39268 -472.6265 -124.77583 4294967295
-13.594931 -468.14536 -117.45808 4294967295
-1.6146185 -463.98785 -112.8017 4294967295
5.7470241 -468.38452 -137.14603 4294967295
-30.535543 -483.13272 -140.85922 4294967295
-17.575153 -477.40823 -109.7224 4294967295
-21.419847 -495.70282 -133.76518 4294967295
-18.274746 -499.56134 -105.92545 4294967295
16.031605 -472.69247 -141.23074 4294967295
17.223265 -482.42883 -116.28779 4294967295
23.993595 -497.43225 -108.74483 4294967295
24.213676 -506.83453 -131.4825 4294967295
-132.99782 -420.5657 -130.03217 4294967295
-147.08466 -430.73697 -132.15004 4294967295
-133.94226 -439.41907 -124.06383 4294967295
-146.41925 -436.89706 -115.54432 4294967295
-131.66762 -471.05923 -132.76837 4294967295
-140.60515 -473.09229 -132.06226 4294967295
-135.07671 -473.54407 -129.22079 4294967295
-136.75499 -464.24091 -126.04597 4294967295
151.82747 -442.35526 -129.35982 4294967295
131.93312 -434.02237 -122.64083 4294967295
126.66722 -433.26309 -132.27881 4294967295
141.6882 -421.52774 -136.44354 4294967295
143.87984 -464.20761 -123.20847 4294967295
140.798 -474.51425 -113.904 4294967295
139.95247 -465.8381 -138.22661 4294967295
128.06674 -470.07062 -136.0435 4294967295
3.2469866 -159.82799 116.00262 4294967295
3.4224253 -155.935 118.93221 4294967295
-17.890505 -161.93585 120.35506 4294967295
-7.7250519 -146.21329 123.05867 4294967295
9.9018431 -162.5712 142.98019 4294967295
-10.654513 -165.28421 139.71815 4294967295
4.2665539 -170.25299 132.6367 4294967295
-9.1550121 -168.90276 135.67152 4294967295
11.96682 -165.21066 150.50003 4294967295
-16.617695 -157.70219 152.4416 4294967295
2.7136171 -152.41043 147.13992 4294967295
-2.2814689 -164.45682 147.08765 4294967295
-0.31802163 -164.12675 127.54684 4294967295
-9.0691624 -161.80057 141.71031 4294967295
12.552893 -147.88707 123.60801 4294967295
-5.9362025 -143.19075 119.05293 4294967295
2.243417 -133.60745 117.30204 4294967295
-13.107934 -124.23923 109.38998 4294967295
7.557723 -125.12408 117.90668 4294967295
4.693049 -128.38336 113.53746 4294967295
-0.10360932 -125.88107 132.73126 4294967295
6.1298347 -135.83917 144.18243 4294967295
-14.085658 -120.18928 133.03117 4294967295
11.533785 -125.35506 140.2415 4294967295
-16.642088 -138.73378 144.14151 4294967295
9.414257 -125.07382 154.32376 4294967295
-11.358923 -132.5217 141.66583 4294967295
7.1893077 -136.58261 144.32971 4294967295
-5.0384893 -144.1346 127.01411 4294967295
-0.1225735 -134.64468 126.83554 4294967295
1.6838012 -134.85793 134.12434 4294967295
4.767015 -138.83173 125.63537 4294967295
-6.731998 -138.06329 116.64961 4294967295
-18.310873 -140.90257 120.77608 4294967295
-13.398044 -142.14458 123.40234 4294967295
-18.776524 -137.78233 145.66408 4294967295
-20.3808 -136.57797 145.38948 4294967295
-28.616262 -131.59271 150.05643 4294967295
-13.172212 -142.14632 136.66197 4294967295
-14.804822 -144.28058 131.97652 4294967295
-0.20279238 -142.83289 133.6638 4294967295
-6.2622089 -154.79472 118.10315 4294967295
-16.686375 -158.34271 123.20295 4294967295
-21.264833 -152.67334 148.8457 4294967295
-28.272308 -156.90477 149.28899 4294967295
-23.436424 -155.21025 144.55919 4294967295
-23.501253 -156.49541 147.61572 4294967295
-11.42247 -142.32964 126.53004 4294967295
-4.42382 -157.57527 127.11416 4294967295
16.72834 -145.54474 118.40858 4294967295
13.80044 -140.75305 119.86657 4294967295
19.622717 -134.52318 143.80014 4294967295
20.136717 -130.64601 142.91034 4294967295
13.906989 -137.08321 139.87537 4294967295
13.408578 -141.52272 143.32855 4294967295
9.2310848 -135.59157 125.84973 4294967295
2.1047993 -145.40198 128.17191 4294967295
14.839911 -149.06844 116.20004 4294967295
26.705824 -148.69014 123.14965 4294967295
13.200251 -153.97403 142.57455 4294967295
20.365042 -165.10309 139.81714 4294967295
18.570349 -160.97723 135.4014 4294967295
10.564934 -145.28284 146.33826 4294967295
17.245115 -144.5739 122.20177 4294967295
2.6307125 -149.71805 129.98311 4294967295
11.537605 -149.51437 113.7347 4294967295
7.1129026 -150.87633 123.57436 4294967295
-12.333014 -137.01866 116.10811 4294967295
-10.109138 -150.87556 105.29436 4294967295
12.385604 -134.79312 109.50115 4294967295
12.93257 -165.07962 -92.410851 4294967295
7.3789735 -174.93254 -81.079468 4294967295
-17.078825 -181.49118 -76.197136 4294967295
-16.214336 -172.28758 -83.949165 4294967295
-10.937937 -156.38304 -80.470009 4294967295
2.6027486 -160.54396 -90.496834 4294967295
5.3459578 -152.53325 336.46936 4294967295
-7.111887 -152.84325 344.552 4294967295
-12.144501 -118.33103 -93.256706 4294967295
-13.562 -123.20061 -83.4702 4294967295
9.6839828 -127.39843 -86.605919 4294967295
15.523505 -112.32451 -78.729546 4294967295
3.3946157 -123.96682 -79.610832 4294967295
-8.8525791 -133.02927 -85.766197 4294967295
4.1905918 -146.631 355.25732 4294967295
3.759654 -147.4664 348.84827 4294967295
-28.208979 -137.9745 -89.177269 4294967295
-31.999695 -134.75156 -78.580315 4294967295
-14.494672 -147.53407 -76.640778 4294967295
-8.190752 -143.81784 353.31042 4294967295
-32.929916 -163.25378 -80.970009 4294967295
-33.39735 -157.07324 -84.775398 4294967295
-18.457535 -152.51886 -80.560829 4294967295
-5.0084195 -152.75116 119.97956 4294967295
-4.2802286 -151.55542 351.92114 4294967295
10.562915 -159.5295 353.64758 4294967295
10.024769 -148.16661 351.42233 4294967295
25.298117 -130.66223 -82.609154 4294967295
26.855165 -131.03265 -91.33947 4294967295
7.8783808 -148.05653 -74.809143 4294967295
27.013569 -152.40134 -82.238342 4294967295
24.60747 -164.27621 -86.331848 4294967295
11.072494 -153.56848 -80.057274 4294967295
0.02915398 -159.26842 114.21494 4294967295
3.7594538 -149.8157 -109.67701 4294967295
8.2657385 -172.60742 -86.059669 4294967295
-1.9582801 -172.85825 -89.34021 4294967295
-12.268694 -181.6494 -119.67053 4294967295
-7.5244946 -125.20918 -106.27188 4294967295
-5.580349 -117.1794 -79.210854 4294967295
9.1310282 -125.92764 -91.067696 4294967295
12.587582 -123.96805 -114.74604 4294967295
-17.76651 -138.74307 -109.36919 4294967295
-19.752415 -132.56131 -74.74675 4294967295
-17.62763 -152.7169 -107.69805 4294967295
-23.151243 -153.4303 -85.310562 4294967295
13.288228 -134.65353 -118.02573 4294967295
17.821337 -140.58891 -80.600113 4294967295
23.426853 -152.21272 -83.971992 4294967295
12.807294 -156.93649 -105.4578 4294967295
-137.06137 -109.84109 -106.54649 4294967295
-137.94391 -127.96389 -106.51913 4294967295
-135.50165 -119.28836 -106.1097 4294967295
-135.10951 -116.86324 -102.08017 4294967295
-144.4458 -145.40323 -116.45885 4294967295
-142.11588 -155.32005 -109.31836 4294967295
-139.09607 -147.90697 -107.17929 4294967295
-144.12712 -141.6259 -110.36326 4294967295
137.17795 -118.55013 -115.83464 4294967295
141.40804 -117.16682 -116.4753 4294967295
138.09097 -120.77214 -116.93456 4294967295
142.88164 -119.00823 -111.82359 4294967295
143.02467 -155.76701 -105.95165 4294967295
140.14664 -158.23216 -107.91819 4294967295
139.23737 -155.34065 -111.98274 4294967295
137.41116 -156.87552 -114.4838 4294967295
1.7656846 27.833649 47.184669 4294967295
0.48195985 31.94453 68.889038 4294967295
1.8041674 25.361156 80.097939 4294967295
-7.7477937 28.311243 42.190498 4294967295
4.021276 31.854778 70.527328 4294967295
-1.4860647 23.444454 78.848495 4294967295
12.103863 29.443048 68.656036 4294967295
-7.3201098 22.519974 78.637047 4294967295
8.2950239 28.88188 81.18177 4294967295
2.3026636 26.077785 82.955093 4294967295
5.7367306 16.056461 93.969009 4294967295
2.3115454 15.48831 91.615318 4294967295
13.771269 21.080673 100.08237 4294967295
5.617435 18.449938 94.697845 4294967295
2.1371951 34.664696 100.49329 4294967295
-3.1718788 22.143816 101.59988 4294967295
6.921906 21.202028 101.09365 4294967295
-2.853009 23.751078 104.60831 4294967295
-0.20710684 38.856522 109.86134 4294967295
8.0811911 31.603411 99.81382 4294967295
-1.8986312 33.058022 168.75278 4294967295
5.5206585 35.206768 42.240993 4294967295
1.9811296 30.095961 68.618217 4294967295
0.44477099 30.640759 63.711216 4294967295
9.9373016 28.489239 71.514946 4294967295
9.7092743 37.303917 101.03593 4294967295
12.930572 35.766655 88.078758 4294967295
15.902495 24.809948 93.192253 4294967295
3.203563 36.964039 89.981911 4294967295
3.1564527 32.664181 95.572853 4294967295
-4.021924 28.725698 97.060242 4294967295
4.2653151 30.905481 47.511646 4294967295
-3.178575 33.306591 61.157494 4294967295
-0.46193892 34.386169 80.967384 4294967295
1.613778 33.955963 80.524384 4294967295
5.2513251 42.141853 80.77845 4294967295
16.159691 43.748154 90.360779 4294967295
18.585596 43.835033 96.881714 4294967295
-2.4103141 33.051945 93.83358 4294967295
-1.5356835 39.817444 98.795929 4294967295
4.2196627 31.703899 94.124664 4294967295
7.4450836 27.520103 44.097782 4294967295
3.7185731 50.293674 72.667404 4294967295
1.9028769 32.218426 67.908836 4294967295
-0.11592464 35.793514 70.694496 4294967295
3.0460386 44.387321 87.124039 4294967295
-1.6350725 47.696072 93.583557 4294967295
3.6055417 46.183308 90.623337 4294967295
-12.184214 36.300915 93.201401 4294967295
7.9499354 42.44099 99.777596 4294967295
-7.8039994 32.539799 108.0425 4294967295
-2.0312324 31.185274 42.687996 4294967295
-3.0427504 26.333941 64.174065 4294967295
-13.844983 41.607533 73.523979 4294967295
-9.855999 27.536831 71.855339 4294967295
-10.029557 41.35051 91.376953 4294967295
-0.12743659 43.315449 85.506119 4294967295
-10.511902 51.201324 93.68573 4294967295
-4.9143968 41.680786 91.472275 4294967295
-3.8598166 33.449715 108.39413 4294967295
4.5561295 36.46664 106.59535 4294967295
-2.3359454 28.952551 42.925056 4294967295
2.7342672 23.106539 78.379478 4294967295
-6.575428 28.999418 78.027077 4294967295
-5.3348565 28.046793 74.746574 4294967295
-15.442831 37.443176 82.172218 4294967295
-19.613203 28.127756 95.62355 4294967295
-20.32666 25.865263 94.336868 4294967295
-1.1176332 24.246727 94.370102 4294967295
-6.8655772 28.311268 93.514412 4294967295
2.3719938 44.814922 104.12526 4294967295
4.9386306 34.375965 50.622211 4294967295
-2.4250693 24.837723 59.43581 4294967295
-13.637184 26.598146 79.065521 4294967295
-7.5983295 36.061436 74.91571 4294967295
-4.8835664 18.249077 89.189148 4294967295
-4.1473122 20.250189 84.90152 4294967295
-10.923272 24.094833 90.735481 4294967295
-7.5490098 29.739389 90.307732 4294967295
-0.77111542 20.495281 99.325264 4294967295
-1.349032 27.034986 102.2375 4294967295
-3.5914705 -565.06036 -183.41782 4294967295
-2.5376093 -787.31018 -27.16044 4294967295
-6.7944455 -783.66809 -22.952883 4294967295
-7.6803427 -563.13763 -183.13811 4294967295
-2.9437923 -569.31812 -187.17455 4294967295
-1.8130332 -784.34155 -32.32074 4294967295
9.0323935 -562.09686 -186.50494 4294967295
8.1345148 -784.3858 -22.912708 4294967295
5.6561227 -561.72577 -177.81445 4294967295
3.9723842 -773.66547 -30.73218 4294967295
2.5264564 -548.91089 -170.8979 4294967295
4.9911242 -787.15442 -18.876438 4294967295
3.5464277 -548.0097 -168.56567 4294967295
8.260766 -776.58636 -9.7076941 4294967295
-6.4691987 -556.6662 -176.1003 4294967295
-3.3746483 -790.76569 -24.984055 4294967295
-204.07806 -343.263 127.58204 4294967295
-237.27031 -345.27264 119.04678 4294967295
-244.93436 -339.99506 122.13503 4294967295
-195.62958 -340.73203 118.6662 4294967295
-126.53867 -339.44669 125.10756 4294967295
-100.64993 -343.46616 123.58614 4294967295
-59.785236 -340.45166 118.86264 4294967295
-32.151508 -349.08694 123.27435 4294967295
-201.67297 -340.56598 131.72823 4294967295
-241.92 -333.29401 120.56123 4294967295
7.4753594 -335.89178 126.17719 4294967295
-7.0289893 -333.37952 129.64258 4294967295
-189.70842 -334.15839 127.95403 4294967295
-245.8423 -333.2254 119.0494 4294967295
5.1720839 -337.64804 109.48038 4294967295
-200.47409 -337.14075 122.91425 4294967295
-240.52336 -330.62848 117.28654 4294967295
-6.261425 -343.78891 117.1514 4294967295
-206.34428 -331.04593 113.14825 4294967295
-241.90367 -344.52704 120.05922 4294967295
-8.3311539 -335.53152 111.56665 4294967295
-199.20483 -330.04654 109.35531 4294967295
-235.30412 -338.30634 126.03602 4294967295
1.3025359 -336.78659 117.71646 4294967295
-190.21881 -335.93597 123.40077 4294967295
-242.20293 -340.72763 124.55256 4294967295
-8.6192989 -346.23758 120.89083 4294967295
-32.107288 -345.16089 116.16068 4294967295
-63.645687 -342.84076 133.74518 4294967295
-100.09773 -331.8533 114.23639 4294967295
203.40771 -341.5332 125.21216 4294967295
234.0824 -336.30438 112.95716 4294967295
238.19331 -339.28912 118.34504 4294967295
194.81886 -339.62704 119.02104 4294967295
167.99049 -340.55316 124.76637 4294967295
243.6931 -334.12747 121.38261 4294967295
196.62769 -342.49713 126.81646 4294967295
231.99197 -342.16998 128.41188 4294967295
202.56161 -328.86896 127.27277 4294967295
245.0945 -333.71628 119.79085 4294967295
199.50438 -324.35773 119.02534 4294967295
235.09161 -331.86005 125.66206 4294967295
203.68848 -336.31244 112.41481 4294967295
248.9324 -331.80301 118.7 4294967295
206.34538 -335.65817 115.19318 4294967295
235.59241 -335.05121 121.43066 4294967295
192.92709 -336.4173 124.72818 4294967295
178.31012 -332.17673 114.8789 4294967295
-6.8417029 -344.10992 129.60497 4294967295
-138.59071 -341.33911 115.0171 4294967295
-167.08473 -342.28448 112.10185 4294967295
34.884457 -339.33084 119.08068 4294967295
137.21735 -343.01736 119.08116 4294967295
96.491676 -345.62488 113.41745 4294967295
65.19278 -340.62073 127.01134 4294967295
106.61533 -339.05084 124.00773 4294967295
76.824486 -342.81265 114.6199 4294967295
34.237297 -339.14496 112.98354 4294967295
-160.96968 -346.28268 120.0854 4294967295
135.49333 -341.35724 120.8269 4294967295
-163.33968 -371.85529 92.84745 4294967295
-142.17528 -375.46802 97.006149 4294967295
-97.430504 -376.89862 101.30785 4294967295
-74.177261 -375.28293 97.055222 4294967295
-24.962481 -374.89584 99.304436 4294967295
-4.7991776 -370.49005 100.31538 4294967295
-135.16206 -398.9902 65.183426 4294967295
-106.77162 -399.10867 64.252319 4294967295
-63.375576 -396.53693 62.532436 4294967295
-25.722589 -400.27011 66.675262 4294967295
5.0606685 -396.30054 74.493309 4294967295
-60.308674 -411.10669 39.336193 4294967295
-33.169559 -410.76196 30.142284 4294967295
2.114444 -428.27753 40.642868 4294967295
-193.92754 -352.25201 97.066536 4294967295
-194.73338 -352.22348 60.303772 4294967295
-152.70946 -383.9021 58.521572 4294967295
-183.44159 -364.74185 20.534748 4294967295
-156.3792 -394.30325 14.063848 4294967295
-125.84698 -397.14362 29.883202 4294967295
-96.389061 -415.39703 30.726618 4294967295
-183.46107 -354.30038 -15.467066 4294967295
-150.24402 -391.82184 -21.335068 4294967295
-124.2647 -404.23962 -9.4754667 4294967295
-90.316788 -420.42624 -1.877254 4294967295
-62.371769 -423.74359 -9.7423029 4294967295
-34.031616 -429.29056 2.1731286 4294967295
0.23330578 -428.19339 -0.68236327 4294967295
-174.80174 -347.54498 -79.748734 4294967295
-141.78799 -368.22675 -62.413826 4294967295
-111.44089 -395.97989 -58.220913 4294967295
-94.824066 -400.25989 -41.174286 4294967295
-62.23217 -412.03854 -42.322681 4294967295
-31.485067 -415.20364 -33.816254 4294967295
2.9617183 -419.15829 -32.528667 4294967295
-152.72856 -322.46747 -123.29685 4294967295
-145.55554 -353.98712 -107.40234 4294967295
-113.43957 -374.72183 -89.630447 4294967295
-84.375244 -383.61874 -80.092171 4294967295
-56.030994 -395.05258 -68.604042 4294967295
-25.671387 -391.39584 -57.61866 4294967295
8.5157108 -396.26685 -69.801369 4294967295
-140.68929 -355.76123 91.262901 4294967295
-90.866188 -383.63559 54.295708 4294967295
-127.55675 -383.52859 53.955654 4294967295
-96.49929 -366.31314 89.491158 4294967295
-65.334549 -365.78659 94.383934 4294967295
-61.540195 -390.71558 63.760143 4294967295
-30.689363 -358.55688 93.971848 4294967295
-33.003738 -391.80823 70.319305 4294967295
7.1013746 -374.28836 102.70966 4294967295
-8.5930004 -392.55801 60.881088 4294967295
-39.467567 -414.12311 36.654579 4294967295
-68.268837 -412.15833 33.086521 4294967295
0.2180133 -412.5961 33.160374 4294967295
-165.97687 -357.81107 89.794838 4294967295
-164.83131 -367.85309 62.137383 4294967295
-162.42834 -381.31683 24.378532 4294967295
-127.78671 -399.11111 28.378656 4294967295
-94.992325 -405.42926 25.345707 4294967295
-148.46756 -374.60544 -28.609135 4294967295
-117.72453 -395.73755 -23.68758 4294967295
-90.10688 -413.44348 -9.8977022 4294967295
-60.005821 -420.97565 -1.8278102 4294967295
-32.585682 -424.68881 3.2277777 4294967295
0.77865833 -432.85403 -4.1143312 4294967295
-141.04607 -367.65698 -74.485725 4294967295
-121.61764 -378.94272 -63.92168 4294967295
-92.790276 -395.07602 -41.852551 4294967295
-62.629021 -403.05298 -36.581833 4294967295
-30.890997 -405.54745 -44.096188 4294967295
-3.6167381 -405.35736 -37.703056 4294967295
174.37837 -364.50357 89.736351 4294967295
134.27219 -377.08932 88.096939 4294967295
106.48419 -374.53824 96.348381 4294967295
64.011375 -374.93369 97.506325 4294967295
35.011505 -375.3923 99.529205 4294967295
100.64362 -395.92783 67.294884 4294967295
129.0677 -403.02356 67.189613 4294967295
70.323624 -404.20441 62.75827 4294967295
33.153118 -404.50189 66.504066 4294967295
32.869831 -425.82037 28.115028 4294967295
76.171265 -418.27258 28.493347 4294967295
202.44736 -357.28183 85.090042 4294967295
174.57072 -370.38913 64.838364 4294967295
196.8231 -358.06467 56.155457 4294967295
156.39561 -382.8847 25.917774 4294967295
189.42313 -368.95007 11.631116 4294967295
126.52394 -401.63919 23.236069 4294967295
89.152252 -404.28217 30.819946 4294967295
147.63979 -393.52887 -20.583443 4294967295
175.86148 -365.98999 -23.49836 4294967295
122.27108 -403.4144 -12.595188 4294967295
79.532356 -431.24045 0.40738952 4294967295
63.606075 -427.51141 1.2459191 4294967295
32.393593 -421.52213 9.1692123 4294967295
145.6546 -377.96573 -67.596855 4294967295
169.9471 -345.41837 -70.254082 4294967295
112.82999 -398.65518 -60.966919 4294967295
83.284515 -399.49756 -42.022011 4294967295
63.45739 -400.35025 -34.031807 4294967295
24.427797 -403.32104 -27.658077 4294967295
132.80899 -342.52597 -107.29117 4294967295
158.18333 -323.75089 -124.13886 4294967295
111.10468 -366.8042 -97.692314 4294967295
80.542328 -379.11276 -72.318466 4294967295
48.365818 -392.7019 -63.466251 4294967295
21.282589 -392.43549 -59.670387 4294967295
130.80212 -393.87274 61.543987 4294967295
100.64261 -384.95999 58.677258 4294967295
139.38452 -357.60962 91.544121 4294967295
60.614239 -395.11273 64.911995 4294967295
67.626144 -365.9639 93.888474 4294967295
94.509735 -364.97534 92.745094 4294967295
28.037073 -390.7908 62.929585 4294967295
39.745037 -374.86789 90.471306 4294967295
68.227859 -407.53152 35.414749 4294967295
25.340611 -408.93158 43.075855 4294967295
166.85179 -370.77332 92.623642 4294967295
166.05037 -360.70596 58.576412 4294967295
153.79597 -381.68475 16.414751 4294967295
125.32743 -390.30249 20.574625 4294967295
89.187126 -405.28708 28.587774 4294967295
152.23819 -384.50821 -18.632723 4294967295
113.10403 -400.2825 -19.897751 4294967295
89.718666 -419.72928 -14.297812 4294967295
63.976227 -415.00748 4.4755445 4294967295
45.129074 -435.73285 -2.0962131 4294967295
140.31474 -370.74228 -63.373642 4294967295
116.44843 -382.29895 -58.685005 4294967295
84.740227 -397.96768 -42.115734 4294967295
58.232101 -393.19055 -44.502911 4294967295
22.532331 -403.36411 -28.025328 4294967295
49.572563 -340.23666 326.35684 4294967295
74.866837 -335.6366 325.85571 4294967295
105.67199 -345.84195 326.17267 4294967295
123.12901 -332.49646 331.3262 4294967295
179.34692 -338.93863 332.64844 4294967295
149.96886 -330.7309 336.09012 4294967295
143.80156 -327.35446 332.0806 4294967295
182.72786 -335.28644 336.91357 4294967295
153.3232 -334.44138 327.13678 4294967295
2.0340581 -336.2074 341.58603 4294967295
-0.21344791 -348.00513 338.29337 4294967295
186.65337 -334.1344 325.54016 4294967295
148.95534 -340.18369 337.79431 4294967295
-0.40543023 -321.33942 334.41055 4294967295
182.80725 -329.83337 333.74142 4294967295
151.13179 -329.61655 334.91638 4294967295
7.9390674 -326.98236 328.41153 4294967295
181.65868 -332.70236 329.577 4294967295
146.37585 -324.13724 332.94266 4294967295
1.2072794 -323.9537 314.45734 4294967295
173.86377 -319.84668 337.8168 4294967295
145.55008 -331.86816 322.2948 4294967295
181.73976 -334.31897 328.45868 4294967295
148.43871 -332.1994 334.84818 4294967295
117.05031 -341.27142 342.45694 4294967295
111.37233 -335.48264 325.36871 4294967295
71.985031 -329.59692 323.67743 4294967295
174.49309 -331.58923 331.92029 4294967295
-20.235266 -337.61005 326.19366 4294967295
2.9435089 -333.07935 336.76538 4294967295
-147.04591 -340.13074 319.14078 4294967295
-172.6656 -335.43277 340.92911 4294967295
-143.24886 -335.42426 331.40002 4294967295
-172.74506 -332.73892 334.28467 4294967295
-146.13177 -329.22202 344.77408 4294967295
-177.66856 -331.2955 330.13495 4294967295
-149.11407 -330.34842 328.01694 4294967295
-175.77473 -327.92874 331.27591 4294967295
-149.38515 -332.7999 324.57455 4294967295
-182.81322 -319.30893 327.60907 4294967295
-144.45476 -330.86499 339.6351 4294967295
-182.1609 -325.42703 327.64056 4294967295
-146.50684 -326.6553 333.12866 4294967295
-186.39098 -335.66321 339.08203 4294967295
0.87365872 -332.51782 327.62631 4294967295
-27.951479 -333.87747 328.46368 4294967295
-145.25069 -334.58734 331.3978 4294967295
-192.36069 -336.19312 334.10709 4294967295
50.260052 -336.5799 326.68405 4294967295
18.600868 -342.35043 332.38132 4294967295
-124.79078 -344.52396 332.70398 4294967295
-55.191109 -332.3158 326.47922 4294967295
-76.431801 -337.87604 322.71634 4294967295
-100.31036 -345.55695 331.21057 4294967295
-70.725609 -339.84232 329.81421 4294967295
-99.975723 -335.69705 331.99957 4294967295
-122.49947 -332.04855 334.90222 4294967295
27.122955 -336.14288 335.92273 4294967295
-45.235374 -334.26993 328.29337 4294967295
3.8778262 -335.48032 319.10178 4294967295
-7.6154857 -367.98056 317.27512 4294967295
22.439943 -369.05078 309.8674 4294967295
52.839211 -365.60916 302.30209 4294967295
79.560707 -360.99469 306.70654 4294967295
101.61359 -357.00806 310.37854 4294967295
115.17357 -359.41479 308.7771 4294967295
140.08365 -350.80264 304.91891 4294967295
-4.174458 -393.146 287.72375 4294967295
19.798071 -390.68399 285.62616 4294967295
47.660145 -394.31009 290.46597 4294967295
74.822327 -391.02377 289.5484 4294967295
99.389503 -383.73703 278.69168 4294967295
133.24307 -364.35941 275.75504 4294967295
148.13832 -358.05328 280.04892 4294967295
-3.817524 -421.10223 261.66385 4294967295
17.548594 -419.63699 261.1174 4294967295
50.012768 -420.20367 268.79062 4294967295
77.937531 -407.79675 248.33069 4294967295
112.58669 -401.34387 250.14006 4294967295
127.73705 -381.89023 254.31503 4294967295
150.15631 -355.81512 249.985 4294967295
-0.12220105 -424.69583 226.03354 4294967295
36.011826 -415.23807 235.52734 4294967295
56.844345 -424.16464 232.42381 4294967295
87.106796 -410.8028 222.01711 4294967295
109.08926 -399.62933 218.56453 4294967295
138.03139 -381.83795 217.04457 4294967295
163.41367 -356.26529 212.2561 4294967295
2.3784089 -409.99872 211.49709 4294967295
32.796146 -405.77856 210.45442 4294967295
58.883686 -406.90173 202.58237 4294967295
86.844917 -411.18195 193.83382 4294967295
114.69548 -389.77881 192.20537 4294967295
148.07832 -364.88376 174.81171 4294967295
180.63515 -340.94321 173.41466 4294967295
-6.5321836 -378.38333 182.8853 4294967295
40.854805 -388.57913 176.21036 4294967295
72.742775 -384.59006 180.77106 4294967295
98.257881 -373.16428 170.15501 4294967295
123.32639 -361.80322 154.56827 4294967295
158.82358 -342.9946 151.0414 4294967295
194.25262 -314.9917 123.34915 4294967295
-1.4551508 -362.58475 305.02789 4294967295
25.075972 -361.53925 314.43729 4294967295
31.8995 -388.45123 280.69193 4294967295
-2.2413495 -392.22906 286.12802 4294967295
52.624317 -364.31049 295.03952 4294967295
50.75177 -389.30875 288.57779 4294967295
78.062248 -362.14059 312.68118 4294967295
71.855103 -386.43814 278.39792 4294967295
103.25214 -355.43335 314.11441 4294967295
117.14134 -356.45013 303.26926 4294967295
101.15077 -376.94925 283.2066 4294967295
125.54762 -368.18658 287.47153 4294967295
18.445198 -403.72693 262.04507 4294967295
11.985335 -413.22858 262.08331 4294967295
49.516117 -413.3775 246.41452 4294967295
80.027245 -396.83011 249.35425 4294967295
132.74814 -366.37378 243.6243 4294967295
101.37067 -392.49188 254.06355 4294967295
31.156206 -422.54968 235.43446 4294967295
-4.3697538 -418.22192 238.40858 4294967295
58.230675 -416.01929 231.81749 4294967295
82.567055 -409.60391 223.24944 4294967295
105.65175 -394.04639 221.56552 4294967295
136.70255 -372.42712 218.62738 4294967295
36.748589 -402.71527 200.42021 4294967295
-12.038775 -400.52548 199.05577 4294967295
61.892681 -408.19565 200.14502 4294967295
96.193634 -401.00702 195.1405 4294967295
116.68036 -379.74335 177.73824 4294967295
147.50552 -361.24677 174.73917 4294967295
-27.34865 -364.1788 317.5874 4294967295
-56.422249 -367.55588 309.82465 4294967295
-81.089302 -357.89389 309.40506 4294967295
-101.97062 -361.25949 314.87561 4294967295
-115.67246 -369.71848 309.51511 4294967295
-153.88251 -348.59897 315.5593 4294967295
-23.61408 -392.8645 276.48108 4294967295
-52.326656 -392.41486 283.18182 4294967295
-80.031212 -403.64224 284.19461 4294967295
-104.85985 -393.15417 280.06717 4294967295
-149.65024 -352.11053 284.92764 4294967295
-123.54753 -376.17545 273.38159 4294967295
-19.372162 -417.27368 257.44022 4294967295
-60.152973 -411.9043 267.6087 4294967295
-77.327354 -396.49353 265.61655 4294967295
-119.18819 -378.66254 256.56851 4294967295
-103.20168 -402.9906 249.69348 4294967295
-150.40387 -358.12332 244.07283 4294967295
-38.02375 -425.28326 240.94107 4294967295
-62.352245 -414.52396 230.75638 4294967295
-93.399223 -413.6286 225.25711 4294967295
-101.22115 -406.68387 214.93146 4294967295
-138.68373 -377.42917 212.44173 4294967295
-158.71651 -364.71469 207.38571 4294967295
-30.958097 -400.65161 204.42767 4294967295
-70.168877 -411.89676 192.60765 4294967295
-95.731804 -404.97791 200.02057 4294967295
-116.12111 -390.60504 179.77486 4294967295
-150.38187 -369.89792 185.81418 4294967295
-172.0412 -347.10373 179.17123 4294967295
-32.462177 -388.0264 178.4689 4294967295
-75.450592 -376.52332 174.89583 4294967295
-95.499954 -375.45496 171.48213 4294967295
-132.70515 -358.21249 153.55597 4294967295
-160.6438 -344.36356 146.70593 4294967295
-199.00461 -317.04623 128.81361 4294967295
-23.336903 -387.05252 284.7709 4294967295
-26.407341 -359.74213 313.50027 4294967295
-45.951374 -396.32785 285.85434 4294967295
-48.978359 -362.40973 308.78683 4294967295
-81.872284 -385.59363 274.70016 4294967295
-82.359856 -356.07132 315.29684 4294967295
-106.01263 -355.78967 306.3295 4294967295
-110.52837 -377.41055 275.21469 4294967295
-125.97311 -348.29721 323.73221 4294967295
-126.14581 -365.62558 281.06436 4294967295
-30.899076 -405.75421 267.34848 4294967295
-57.981041 -409.80603 258.98328 4294967295
-77.225685 -395.40829 251.65938 4294967295
-101.65971 -390.25854 246.47292 4294967295
-130.21638 -371.21335 240.21837 4294967295
-34.115421 -415.60138 231.70854 4294967295
-66.662231 -410.9509 228.29848 4294967295
-79.477257 -411.07693 223.99182 4294967295
-109.51305 -400.57571 212.59691 4294967295
-129.80141 -374.68579 205.55843 4294967295
-31.448299 -400.55035 205.62984 4294967295
-70.134048 -402.36826 208.6956 4294967295
-92.546814 -396.5184 200.08904 4294967295
-122.90783 -378.50488 184.53209 4294967295
-142.52798 -370.18527 173.09618 4294967295
-180.07919 -494.23053 85.791939 4294967295
-211.41411 -516.21283 78.786682 4294967295
-211.89377 -507.38574 85.207451 4294967295
-180.48146 -508.34863 86.87117 4294967295
-129.23018 -501.30304 75.2631 4294967295
-89.972862 -511.50507 77.633469 4294967295
-52.992165 -518.86609 84.664612 4294967295
-37.020023 -512.81219 86.322197 4294967295
-176.14999 -503.51791 78.91993 4294967295
-217.84299 -508.50906 84.713692 4294967295
1.5815265 -513.20551 86.595436 4294967295
3.0413322 -508.46979 94.661949 4294967295
-176.28069 -499.81836 84.893944 4294967295
-213.05183 -505.13995 84.069534 4294967295
-1.8837945 -499.26129 90.155907 4294967295
-171.27861 -502.9967 81.907227 4294967295
-219.66341 -497.27936 80.206276 4294967295
-5.8264132 -501.01233 82.266731 4294967295
-181.1619 -506.82361 74.965096 4294967295
-221.28352 -510.01297 86.296036 4294967295
-5.4973574 -496.72446 78.734283 4294967295
-178.84671 -506.07416 72.666939 4294967295
-213.56024 -513.02899 83.006966 4294967295
0.65562844 -505.99579 77.981728 4294967295
-179.39755 -508.6918 80.21183 4294967295
-207.4906 -511.2178 85.162628 4294967295
0.053643506 -506.12976 89.438477 4294967295
-27.799429 -501.47702 85.044792 4294967295
-66.068359 -511.92499 79.103073 4294967295
-89.96579 -506.36179 81.646202 4294967295
175.26479 -510.36261 75.052666 4294967295
215.09462 -512.97107 83.157555 4294967295
203.39136 -507.96152 88.594231 4294967295
166.51233 -504.78033 89.531914 4294967295
153.42841 -512.38898 89.868996 4294967295
217.99126 -509.28625 77.715782 4294967295
176.79451 -513.36151 92.283684 4294967295
218.3392 -492.91278 81.980202 4294967295
179.9543 -501.55185 84.055984 4294967295
214.24255 -502.18497 76.491455 4294967295
182.71759 -499.68228 77.432846 4294967295
208.27866 -500.0925 81.591057 4294967295
180.85612 -498.49765 84.168633 4294967295
212.41231 -514.27448 78.897881 4294967295
180.49048 -504.129 85.051132 4294967295
225.63438 -494.22092 80.587234 4294967295
180.57448 -500.9838 79.632149 4294967295
147.4548 -510.17499 76.560608 4294967295
-4.9348311 -509.61929 80.0485 4294967295
-120.52518 -510.43329 81.355713 4294967295
-147.14992 -513.13354 79.183937 4294967295
29.090523 -505.73254 83.826523 4294967295
122.38037 -518.89276 86.915527 4294967295
84.477264 -510.94452 84.283241 4294967295
62.019726 -508.81494 85.800209 4294967295
93.945068 -501.39661 72.520866 4294967295
67.722305 -522.87933 85.855431 4294967295
36.063187 -515.02386 82.121925 4294967295
-149.62369 -506.25204 84.963074 4294967295
116.93138 -509.85696 79.654472 4294967295
-156.28206 -540.48529 53.9314 4294967295
-126.12122 -532.07788 67.384247 4294967295
-88.765419 -534.96167 57.425457 4294967295
-58.549129 -533.97504 55.331768 4294967295
-26.678017 -536.79071 58.885574 4294967295
-0.017959572 -540.08484 63.718044 4294967295
-114.95023 -564.03467 37.549786 4294967295
-80.71064 -561.60577 36.195812 4294967295
-62.508137 -552.19659 37.753479 4294967295
-24.068926 -560.7121 38.661186 4294967295
4.1600161 -553.20325 33.930832 4294967295
-62.473183 -577.35364 8.3716393 4294967295
-35.047512 -573.53101 16.533125 4294967295
1.2326969 -576.19171 3.859103 4294967295
-176.14255 -518.99432 56.849888 4294967295
-169.43954 -523.66266 29.378973 4294967295
-144.23225 -547.00183 30.727322 4294967295
-166.79323 -524.45038 6.4445143 4294967295
-141.09969 -551.33826 1.6256649 4294967295
-116.03049 -568.01349 -2.2209167 4294967295
-84.027008 -564.97803 0.28329945 4294967295
-159.06697 -518.25555 -44.882725 4294967295
-142.16528 -550.97351 -49.647854 4294967295
-112.03093 -565.13922 -34.902748 4294967295
-86.764572 -582.09418 -30.537289 4294967295
-55.674915 -573.60278 -23.544075 4294967295
-29.535292 -582.98767 -18.978643 4294967295
-1.363512 -585.43256 -31.807812 4294967295
-154.47632 -512.14331 -81.357071 4294967295
-122.91415 -538.44702 -80.91864 4294967295
-107.47962 -557.61145 -73.452248 4294967295
-69.486511 -563.32239 -62.051086 4294967295
-50.615765 -565.79919 -43.75819 4294967295
-25.915812 -571.07568 -40.198589 4294967295
-2.191407 -574.80536 -57.084724 4294967295
-129.98204 -501.35782 -133.10292 4294967295
-125.29799 -509.83914 -114.09955 4294967295
-109.8495 -531.92987 -105.12083 4294967295
-74.920227 -540.51019 -89.289803 4294967295
-50.763687 -558.60095 -80.468277 4294967295
-30.774771 -547.74866 -66.459892 4294967295
8.5962877 -559.96899 -91.585625 4294967295
-114.90086 -532.36542 63.358204 4294967295
-92.132164 -546.94934 24.137781 4294967295
-119.75236 -553.11755 25.468962 4294967295
-91.11924 -537.5199 61.827675 4294967295
-62.244732 -530.16815 64.833603 4294967295
-60.394489 -551.11499 36.073284 4294967295
-40.747322 -524.64349 50.972881 4294967295
-29.991541 -556.98651 28.179913 4294967295
1.4184362 -537.18964 57.149105 4294967295
-4.9011335 -550.4212 41.621387 4294967295
-38.792973 -576.90674 -1.0840918 4294967295
-44.078148 -571.99542 -1.3120937 4294967295
-2.4994318 -570.09174 9.3198519 4294967295
-153.03725 -528.60229 64.171867 4294967295
-149.84383 -529.89655 25.128799 4294967295
-133.24818 -551.01776 -5.6008768 4294967295
-116.68356 -562.15662 9.4250231 4294967295
-73.444702 -564.71869 3.7492824 4294967295
-129.85976 -552.10138 -45.428581 4294967295
-99.462685 -568.36877 -33.562206 4294967295
-78.926506 -568.88367 -21.60276 4294967295
-64.94989 -574.26031 -35.391602 4294967295
-35.433159 -575.1524 -22.050549 4294967295
-3.4867077 -571.74847 -32.698051 4294967295
-132.48242 -533.07245 -84.124664 4294967295
-112.68039 -546.79517 -72.837959 4294967295
-69.055138 -567.21307 -69.466537 4294967295
-58.768291 -565.24481 -49.401016 4294967295
-26.149057 -563.64819 -48.105465 4294967295
6.7298174 -567.14807 -46.80772 4294967295
158.1452 -537.67389 52.989624 4294967295
125.20222 -538.92853 59.001163 4294967295
90.946396 -535.73468 61.840645 4294967295
67.112595 -532.70343 60.182896 4294967295
38.686382 -537.76367 64.75737 4294967295
85.228249 -556.94977 29.419476 4294967295
118.89246 -559.50348 29.777546 4294967295
65.050743 -558.21277 43.350571 4294967295
33.017899 -559.1499 39.287636 4294967295
28.547468 -565.24957 5.1096373 4294967295
58.446907 -576.10236 8.3332987 4294967295
175.0266 -523.03107 48.941605 4294967295
140.78447 -536.66473 27.373955 4294967295
166.09007 -523.15344 29.365442 4294967295
137.56822 -543.58429 -6.119945 4294967295
166.54132 -530.0354 0.28677553 4294967295
113.28643 -561.43256 2.7593517 4294967295
81.684418 -582.47046 9.7584915 4294967295
132.22754 -548.95831 -52.977051 4294967295
157.76996 -530.60724 -41.652328 4294967295
109.48005 -561.11395 -35.495361 4294967295
74.233315 -575.23053 -34.145245 4294967295
55.079197 -594.94489 -32.288231 4294967295
26.090771 -580.90051 -24.647326 4294967295
132.44661 -530.71948 -76.264481 4294967295
155.46707 -521.05786 -85.245064 4294967295
105.58781 -557.17847 -71.385002 4294967295
68.084656 -561.44617 -61.797432 4294967295
47.399529 -564.78662 -44.667927 4294967295
31.895765 -561.7207 -54.209454 4294967295
122.16354 -511.54257 -110.8094 4294967295
141.9382 -495.92465 -134.29593 4294967295
107.38152 -525.38568 -95.313507 4294967295
73.490593 -540.43018 -84.65799 4294967295
51.91357 -558.17926 -82.046013 4294967295
19.644379 -553.80884 -77.227348 4294967295
118.47573 -552.01465 38.293159 4294967295
88.812271 -547.88361 31.178822 4294967295
111.30348 -527.83893 63.90321 4294967295
54.815983 -557.43805 41.752361 4294967295
56.50547 -522.85974 52.373425 4294967295
88.06987 -526.2558 66.174637 4294967295
31.86344 -553.46936 31.212366 4294967295
31.253513 -525.95197 57.987103 4294967295
67.126411 -561.18713 6.8500481 4294967295
28.795525 -574.52637 4.1361394 4294967295
155.30315 -525.98047 56.709206 4294967295
136.19061 -534.18457 21.757244 4294967295
138.41299 -542.60828 -4.9729872 4294967295
107.1058 -547.20392 -0.23731491 4294967295
86.610634 -572.02649 -4.2463388 4294967295
136.59033 -547.69067 -49.763195 4294967295
105.40421 -567.22955 -36.476089 4294967295
74.327919 -585.2287 -32.140022 4294967295
53.735455 -578.47089 -31.782022 4294967295
22.983114 -578.78339 -24.177866 4294967295
131.26804 -534.62628 -87.514168 4294967295
98.713898 -547.57562 -73.264343 4294967295
85.465416 -554.94403 -65.999878 4294967295
56.279434 -568.24036 -57.261322 4294967295
37.380844 -566.46924 -49.633404 4294967295
44.547432 -512.30286 265.34183 4294967295
67.991104 -509.79712 268.9989 4294967295
85.170471 -507.55127 272.66089 4294967295
113.1825 -501.80954 269.41901 4294967295
168.55495 -498.79642 261.96854 4294967295
129.89229 -497.29285 279.45248 4294967295
139.5788 -498.33154 259.4238 4294967295
159.76402 -505.17514 271.92731 4294967295
134.31935 -497.81958 272.89175 4294967295
7.1524258 -490.46545 270.89062 4294967295
-3.1954725 -504.65237 271.86835 4294967295
156.62871 -503.92902 268.92331 4294967295
134.73672 -494.34201 274.56534 4294967295
2.6236899 -486.90555 274.34311 4294967295
167.38019 -496.12234 262.42633 4294967295
133.03299 -494.68781 270.3562 4294967295
-1.4947141 -490.17511 256.94135 4294967295
153.96428 -501.1665 270.99689 4294967295
133.4106 -494.99384 259.14029 4294967295
3.2891688 -492.50208 260.99084 4294967295
154.84262 -497.20633 264.33951 4294967295
129.90326 -494.90671 277.59573 4294967295
-3.775574 -504.21454 255.47913 4294967295
153.52176 -509.62259 263.73575 4294967295
132.01056 -499.08658 266.91602 4294967295
103.08076 -501.56866 268.15579 4294967295
87.372696 -509.03452 258.48447 4294967295
64.45723 -507.89154 256.91934 4294967295
169.09595 -496.35184 270.08401 4294967295
-23.2437 -509.17331 272.92935 4294967295
-1.2826836 -515.71112 268.18396 4294967295
-135.58566 -498.07489 265.38641 4294967295
-161.17973 -500.46158 265.40472 4294967295
-139.46973 -494.90796 273.29974 4294967295
-161.80138 -496.73193 262.20908 4294967295
-137.6525 -495.27338 271.40503 4294967295
-164.71529 -508.2179 269.62256 4294967295
-134.01285 -501.84344 282.08261 4294967295
-169.00339 -509.51562 266.38171 4294967295
-144.12405 -501.98181 258.47058 4294967295
-155.90639 -494.2616 267.54153 4294967295
-130.5396 -496.80731 266.4136 4294967295
-166.63599 -495.99268 270.98477 4294967295
-132.78783 -497.95929 262.53143 4294967295
-158.62363 -507.27917 258.74612 4294967295
0.080660708 -501.22467 259.19611 4294967295
-19.137577 -508.60825 259.58005 4294967295
-140.33107 -508.98895 265.49942 4294967295
-164.83467 -501.04547 268.36844 4294967295
46.706154 -503.03281 266.73419 4294967295
28.455976 -504.76944 260.35266 4294967295
-114.7595 -502.40619 269.65286 4294967295
-43.147957 -514.21802 252.34126 4294967295
-63.572174 -499.33408 266.75003 4294967295
-89.982155 -508.36679 267.94208 4294967295
-62.429859 -504.83932 261.91919 4294967295
-88.381927 -505.50366 258.64301 4294967295
-113.2626 -512.60583 266.49246 4294967295
8.5387058 -505.90265 269.41357 4294967295
-39.702923 -508.48813 264.36111 4294967295
-2.1239769 -528.24585 248.3689 4294967295
21.635897 -525.04291 247.73038 4294967295
40.748852 -527.50507 249.37358 4294967295
62.517776 -527.00952 251.76402 4294967295
93.779305 -527.45624 251.99142 4294967295
109.70333 -536.30023 241.08212 4294967295
127.97399 -514.33228 239.59296 4294967295
-1.6897864 -564.00555 225.26257 4294967295
31.234461 -553.17401 227.07898 4294967295
40.205982 -559.14252 227.70357 4294967295
71.65213 -551.21625 225.41753 4294967295
102.14046 -548.30963 219.81691 4294967295
105.26292 -541.01202 220.28447 4294967295
144.99286 -527.19623 223.29634 4294967295
3.4508491 -563.89795 209.43401 4294967295
33.40379 -569.63409 210.15727 4294967295
44.705418 -581.16095 214.82239 4294967295
73.607445 -565.81036 193.90547 4294967295
97.765968 -563.20135 198.64156 4294967295
116.39404 -532.82599 198.35225 4294967295
146.85461 -519.71686 198.67995 4294967295
7.0527053 -577.68878 181.01347 4294967295
31.149567 -578.57745 175.82687 4294967295
38.822826 -583.94519 179.86914 4294967295
71.447853 -580.02734 170.55699 4294967295
103.7571 -570.51215 169.5533 4294967295
125.57773 -544.44989 166.14369 4294967295
139.76369 -525.01288 161.40791 4294967295
5.8847475 -554.87518 162.33429 4294967295
31.910355 -574.73663 157.23343 4294967295
56.357319 -568.39124 159.64319 4294967295
78.271301 -573.71661 146.34732 4294967295
109.99386 -544.17816 139.30721 4294967295
121.76563 -529.93793 131.14101 4294967295
147.24014 -522.03253 122.46956 4294967295
-2.6243734 -544.20691 128.7124 4294967295
33.455334 -546.17316 131.05914 4294967295
63.416039 -543.8136 134.19724 4294967295
89.569199 -536.20697 126.76344 4294967295
109.81274 -522.01556 116.95302 4294967295
146.51559 -507.76855 94.618988 4294967295
182.32387 -486.14804 88.721207 4294967295
4.0880814 -524.20258 238.78996 4294967295
27.472338 -528.28448 250.63174 4294967295
22.825169 -553.28302 236.67882 4294967295
-3.7320106 -541.89459 233.53282 4294967295
39.74271 -521.65521 240.71805 4294967295
38.934788 -557.68671 233.94743 4294967295
62.993179 -517.07727 247.63208 4294967295
71.066925 -544.85706 232.56674 4294967295
82.66449 -529.8728 247.4402 4294967295
109.9963 -528.85919 246.75458 4294967295
93.432693 -534.74237 215.05333 4294967295
110.00128 -523.34576 221.1998 4294967295
24.507055 -569.4787 200.34846 4294967295
3.6000576 -559.30548 201.08611 4294967295
51.150848 -574.53821 201.9279 4294967295
69.681328 -555.8454 199.55022 4294967295
113.25238 -535.99597 197.4539 4294967295
90.841591 -553.026 189.26947 4294967295
32.284229 -574.71667 183.68739 4294967295
-1.0341189 -577.47168 174.66937 4294967295
49.124069 -569.12866 176.51393 4294967295
67.235519 -569.86877 158.44339 4294967295
98.669563 -560.23407 161.35629 4294967295
117.48029 -545.35046 158.80957 4294967295
28.634615 -558.87231 164.26215 4294967295
-8.2241955 -561.22223 147.1093 4294967295
61.258579 -562.75244 153.32249 4294967295
78.085876 -562.36664 151.30894 4294967295
98.585007 -538.35114 132.96889 4294967295
132.09601 -518.92328 126.51242 4294967295
-23.919132 -532.38898 241.99947 4294967295
-37.376999 -539.50177 241.96681 4294967295
-75.264862 -539.59503 244.35902 4294967295
-87.668282 -530.57611 247.87894 4294967295
-110.32369 -533.77423 255.13985 4294967295
-137.95961 -514.53864 249.73386 4294967295
-26.157768 -556.27948 227.20674 4294967295
-44.223839 -564.01465 224.2439 4294967295
-66.40213 -556.15906 228.73796 4294967295
-88.942177 -541.08667 222.52322 4294967295
-131.8403 -526.60114 226.79114 4294967295
-112.58419 -538.57709 215.90564 4294967295
-35.743103 -573.14514 212.30339 4294967295
-47.213875 -573.9447 212.26425 4294967295
-72.727104 -569.02148 212.38435 4294967295
-112.51124 -546.09576 184.28091 4294967295
-108.29418 -553.99268 201.13075 4294967295
-139.12372 -515.82629 198.18962 4294967295
-31.254694 -577.29376 189.14896 4294967295
-51.522491 -569.22351 169.67813 4294967295
-80.599205 -574.95691 173.99341 4294967295
-100.05334 -579.55005 166.86458 4294967295
-113.24744 -541.67114 160.12602 4294967295
-142.23213 -519.69446 166.37296 4294967295
-33.247929 -563.42084 161.91219 4294967295
-50.696224 -559.79456 152.70317 4294967295
-81.01123 -573.03967 154.34035 4294967295
-102.23688 -543.69073 139.88664 4294967295
-132.54872 -535.76508 128.12421 4294967295
-158.9769 -501.40649 125.1811 4294967295
-33.98605 -545.99713 133.34599 4294967295
-60.983902 -555.75659 135.75601 4294967295
-83.911308 -539.07318 134.00951 4294967295
-118.83405 -532.16583 110.82734 4294967295
-136.22583 -516.15283 106.4977 4294967295
-169.55382 -487.92877 72.904823 4294967295
-22.475769 -547.57135 225.59409 4294967295
-16.212652 -539.15894 247.81883 4294967295
-53.698696 -558.15259 232.23558 4294967295
-59.422661 -524.07574 250.98753 4294967295
-69.001289 -546.24597 221.74687 4294967295
-61.239273 -518.1463 245.508 4294967295
-91.060982 -524.92914 247.15977 4294967295
-91.946815 -536.45129 225.11003 4294967295
-110.67512 -519.3587 254.29321 4294967295
-118.04419 -527.35028 215.62648 4294967295
-25.250813 -558.64642 210.66443 4294967295
-52.679272 -563.13306 200.10722 4294967295
-76.19635 -558.15118 195.76222 4294967295
-90.863098 -555.70856 195.66597 4294967295
-113.54215 -538.3844 191.5157 4294967295
-29.906939 -579.78918 172.7621 4294967295
-57.635849 -575.63605 178.75806 4294967295
-77.379356 -565.54803 166.22603 4294967295
-99.353569 -552.38623 162.89943 4294967295
-120.66702 -540.26605 165.28999 4294967295
-34.545109 -558.83942 156.2782 4294967295
-57.382652 -567.61206 149.80075 4294967295
-76.106789 -563.34741 149.1154 4294967295
-97.559135 -551.98633 127.90182 4294967295
-129.59279 -530.65692 135.12494 4294967295
-125.86658 -749.64514 -76.588799 4294967295
-159.75182 -733.51752 -67.307785 4294967295
-154.6028 -735.75183 -75.146744 4294967295
-135.07205 -739.42316 -81.314827 4294967295
-86.988876 -737.16077 -72.067719 4294967295
-69.48877 -743.40009 -80.683121 4294967295
-46.893208 -732.74384 -71.03215 4294967295
-26.641127 -746.25861 -76.613686 4294967295
-133.66901 -743.43512 -71.643944 4294967295
-155.99788 -738.24841 -79.313667 4294967295
6.9327297 -745.17596 -68.664406 4294967295
3.6988189 -741.77094 -80.861877 4294967295
-123.77309 -736.89886 -69.018883 4294967295
-154.05116 -738.47223 -74.553978 4294967295
0.18965344 -733.15033 -68.918587 4294967295
-122.0054 -742.24207 -76.298409 4294967295
-155.86754 -736.45374 -81.76545 4294967295
-2.2430563 -729.45789 -68.965752 4294967295
-129.12178 -734.65295 -73.157417 4294967295
-169.55855 -740.85358 -73.976547 4294967295
3.4262073 -723.38458 -71.606194 4294967295
-118.94862 -739.40747 -72.074104 4294967295
-149.22681 -731.84583 -72.31337 4294967295
6.8392515 -738.09882 -83.194534 4294967295
-128.08342 -732.42731 -83.728691 4294967295
-163.67941 -738.24402 -77.397545 4294967295
-5.339427 -735.88037 -83.432976 4294967295
-21.245285 -743.30865 -76.603691 4294967295
-45.657261 -729.25885 -86.088661 4294967295
-73.218315 -734.64526 -84.690025 4294967295
129.37946 -742.92834 -82.373985 4294967295
162.22952 -730.08972 -82.269722 4294967295
155.61345 -736.00287 -70.808907 4294967295
120.61001 -741.86658 -74.543358 4294967295
105.91174 -741.46527 -74.03598 4294967295
160.28006 -732.43652 -69.548691 4294967295
125.93957 -748.70581 -71.307037 4294967295
151.8929 -737.2818 -87.331123 4294967295
139.64296 -742.26355 -74.381218 4294967295
155.16791 -735.99347 -76.65197 4294967295
134.17384 -738.41199 -78.21283 4294967295
151.10191 -730.29095 -73.483574 4294967295
130.23221 -730.42816 -86.75988 4294967295
163.9187 -730.99371 -69.541687 4294967295
124.53873 -725.09149 -83.866608 4294967295
156.29929 -738.87946 -66.334961 4294967295
131.66116 -731.27545 -70.96579 4294967295
114.58564 -729.61212 -80.116821 4294967295
-1.7306217 -744.00745 -78.481888 4294967295
-85.738075 -740.62274 -74.864212 4294967295
-105.75332 -729.9516 -83.230942 4294967295
13.504878 -745.40692 -82.954742 4294967295
93.448318 -732.92847 -73.64183 4294967295
49.427166 -736.41101 -83.641617 4294967295
37.720516 -739.41382 -76.831169 4294967295
62.989956 -734.47266 -87.853241 4294967295
40.597256 -741.25952 -75.338173 4294967295
22.99814 -736.52155 -90.807831 4294967295
-115.23627 -736.74121 -80.974411 4294967295
88.248573 -747.56989 -74.084099 4294967295
-108.02565 -740.76532 -99.210777 4294967295
