# .PCD v0.7 - Point Cloud Data file format
VERSION 0.7
FIELDS x y z rgba
SIZE 4 4 4 4
TYPE F F F U
COUNT 1 1 1 1
WIDTH 1123
HEIGHT 1
VIEWPOINT 0 0 0 1 0 0 0
POINTS 1123
DATA ascii
-251.50604 578.04425 -291.85355 1030533916
-292.65259 595.09833 -266.84317 1030398893
-253.56505 592.22107 -287.98889 1030475397
-272.77963 578.55493 -329.43033 1030524252
-316.36646 552.56549 -297.81708 1030473518
-358.13263 527.89429 -270.38309 1030495798
-360.60516 549.59918 -305.49545 1030454996
-388.50476 497.58432 -308.26608 1030499825
-417.65683 496.05667 -263.10959 1030577940
-408.41809 489.89972 -268.30133 1030376345
-448.42517 445.91141 -319.90768 1030496335
-409.79257 493.81754 -261.66519 1030555391
-402.11969 423.9567 -314.9032 1030474860
-425.21194 432.22205 -292.96902 1030451506
-541.21252 409.92944 -271.46515 1030383324
-549.95087 393.66171 -309.56348 1030265749
-541.70728 397.8869 -308.14899 1030393793
-533.93085 352.26511 -310.14301 1030382787
-564.67322 339.27496 -337.60287 1030379834
-562.75934 338.86151 -311.69507 1030375271
-575.21307 298.89078 -252.85652 1030510025
-608.3316 277.14124 -296.32376 1030482108
-584.47284 230.85426 -277.01443 1030414194
-588.83716 233.44559 -284.77899 1030439427
-639.36914 206.90315 -283.73853 1030475934
-590.93597 191.98398 -297.74661 1030382250
601.23053 -167.53931 -304.0062 1032181573
579.17279 -167.84967 -345.97833 1032187747
638.61261 -116.60607 -304.27557 1032201840
599.7851 -99.88208 -315.40427 1032223315
586.72211 -67.32151 -313.07062 1032165869
590.98175 -76.593864 -310.03439 1032206537
620.14789 -9.9474773 -294.0957 1032207477
584.47839 28.990747 -282.59592 1032258748
622.50745 51.806568 -278.45853 1032216470
614.13831 28.316227 -327.71268 1032243716
608.53113 51.320377 -307.28253 1032186136
611.96368 89.05619 -285.68588 1032247474
615.3717 104.35696 -286.61761 1032223046
609.45245 141.46333 -288.3002 1032255661
624.00714 148.58954 -296.91861 1032159830
568.77338 192.09961 -299.53192 1032308677
566.57678 165.22002 -285.89267 1032272707
550.17993 217.07861 -293.67258 1032234186
525.61493 187.10869 -305.30719 1032228683
550.05182 240.53719 -330.7374 1032216201
514.1637 267.06049 -323.78583 1032172849
544.07306 260.67557 -307.39902 1032229354
571.81415 331.47141 -287.5394 1032246803
503.59091 340.01883 -267.59042 1032232978
489.31314 352.78687 -272.48831 1032186405
485.9765 354.19797 -296.49094 1032234992
476.21918 371.92099 -310.84714 1032194726
448.17554 392.09354 -298.47968 1032205598
466.6543 398.42023 -269.97214 1032241031
471.98425 427.20026 -298.30176 1032242374
449.48792 436.18826 -312.63043 1032198484
362.48825 462.97488 -302.92197 1032181439
385.17551 478.35956 -337.47855 1032112719
373.14633 456.30081 -297.59171 1032195934
320.57834 476.17371 -302.4194 1032221436
363.57324 461.80331 -324.96732 1032153521
342.45462 506.14532 -290.1098 1032237408
290.56989 531.11011 -270.9426 1032188418
282.91986 538.44257 -276.17007 1032229623
246.68539 540.53778 -255.30151 1032202914
255.31584 573.8642 -297.75995 1032199424
223.45216 564.72815 -313.71365 1032209490
178.82089 565.17505 -293.87546 1032210967
180.88315 570.19165 -262.48605 1032198082
143.31975 583.93768 -307.22794 1032255258
119.8119 620.80182 -298.92694 1032228549
99.973015 618.27075 -317.99255 1032191102
113.83568 571.64374 -331.74942 1032124396
55.91713 579.2782 -298.59561 1032223583
64.693863 608.11517 -271.66116 1032208551
67.405388 602.46796 -284.59705 1032194055
-9.3144922 607.29419 -309.06335 1032244387
0.17065834 602.14514 -285.96548 1032228818
-53.988823 621.62537 -309.81146 1032202645
-77.951462 600.79889 -269.24057 1032187479
-49.009659 589.16541 -313.0191 1032178754
-69.707855 626.25269 -275.08356 1032256332
-144.66615 604.9646 -271.72012 1032183049
-128.4565 586.69452 -275.12991 1032191371
-189.62471 552.09387 -271.92615 1032176473
-174.1035 568.93555 -297.39069 1032215933
-215.2448 545.89001 -274.81451 1032212443
-242.52957 575.04199 -338.81961 1032246803
-261.43329 545.6853 -331.7449 1032217006
-284.05014 525.41345 -287.37814 1032208685
-280.64658 546.52008 -317.95813 1032200766
-299.65097 503.61197 -332.20438 1032178620
-323.21222 521.58295 -259.86493 1032152045
-321.73099 488.36234 -290.08719 1032262506
-367.85828 475.26483 -314.47589 1032206269
-352.90491 513.13879 -311.07553 1032226133
-386.91696 479.31561 -297.245 1032189894
-416.04343 452.49127 -306.67612 1032154193
-420.9454 430.87204 -348.23224 1032166406
-438.28333 426.78302 -301.40262 1032184257
-472.24133 362.23795 -288.4126 1032173386
-489.27133 374.7489 -279.22995 1032236736
-497.6825 350.81335 -272.84201 1032212443
-514.02051 350.02097 -312.25806 1032179694
-503.30026 332.00732 -304.12805 1032235663
-526.45441 299.46918 -310.9964 1032257406
-528.87042 325.07822 -316.14728 1032124128
-564.21008 250.60596 -302.71439 1032232844
-558.94476 243.80132 -301.33832 1032144529
-559.62177 241.72325 -274.44281 1032231502
-568.64392 217.13399 -345.68787 1032161440
-589.88721 217.73235 -281.72406 1032218214
-588.79962 179.96649 -315.54709 1032171641
569.13684 -194.28857 -288.71661 1033311955
566.65216 -100.28168 -296.332 1033360676
581.24957 -98.19117 -309.62607 1033331953
580.4928 -65.103661 -278.6037 1033317994
541.37317 -43.995564 -320.64804 1033278669
570.42572 -50.818848 -296.92667 1033396243
567.38196 -46.083084 -319.11191 1033351817
596.28894 -2.9645817 -294.8046 1033288735
613.49799 -0.93745947 -283.03726 1033271824
537.99933 21.011463 -317.66299 1033396780
587.53107 6.3939357 -296.44534 1033291822
570.24219 57.520233 -283.5957 1033346717
540.52087 92.852425 -290.66516 1033334772
595.16138 91.938065 -267.79865 1033289272
571.82581 168.879 -313.53094 1033370071
560.27789 139.33507 -331.87607 1033277729
523.06317 157.61081 -314.02737 1033316384
518.24799 162.84988 -302.64236 1033348462
531.67737 213.61995 -291.32498 1033306318
547.64789 194.4622 -306.08481 1033284843
527.20782 275.76471 -325.51202 1033375977
522.44611 306.29944 -303.95096 1033403625
485.14789 277.15009 -305.54251 1033286722
473.3522 274.01956 -258.87738 1033344033
481.60037 279.96439 -289.84299 1033338530
485.83554 358.48032 -267.93909 1033388593
434.41611 360.7139 -291.55869 1033444696
481.30234 371.64566 -295.39474 1033339738
422.93948 376.3764 -259.81015 1033329671
405.39996 421.06192 -285.52332 1033282829
414.70663 441.61526 -300.56424 1033341617
377.99939 409.06299 -284.12149 1033341483
358.22708 420.28714 -327.37515 1033324571
347.72134 488.2131 -276.30487 1033347254
344.16763 485.10025 -260.46509 1033312626
299.43188 481.85712 -269.05823 1033314639
306.95883 506.75385 -315.21777 1033330879
265.45865 496.90485 -309.82883 1033315176
241.23828 524.63458 -284.45813 1033264442
263.13522 540.18713 -278.50912 1033305378
214.12411 518.13171 -323.86716 1033342422
226.55444 560.35565 -301.27209 1033372353
139.63641 546.75903 -342.51199 1033310344
155.88155 547.98877 -262.27054 1033310076
128.31093 518.17694 -303.60437 1033287930
138.01237 560.69983 -294.5806 1033329671
63.544468 568.62 -305.20447 1033376648
72.375397 578.44556 -287.57309 1033258670
65.364342 567.25647 -324.50089 1033314102
35.12672 574.83435 -294.30414 1033364836
56.232796 528.39618 -276.64087 1033307660
17.880369 616.38599 -300.86588 1033248067
-10.808459 614.60657 -297.70633 1033229948
-39.190258 589.94391 -308.93481 1033325108
-40.227093 576.63263 -280.22211 1033374634
-102.33602 577.48724 -258.05316 1033294641
-108.12213 564.74176 -316.4328 1033290346
-114.97666 570.71527 -308.5094 1033317055
-129.07513 573.1214 -251.25542 1033217197
-178.6666 549.75983 -314.69681 1033281219
-153.48674 540.45142 -279.79401 1033337724
-178.70992 548.6969 -316.46701 1033289406
-187.95084 525.99878 -320.61511 1033317860
-228.92688 511.04568 -275.97263 1033345375
-279.28592 512.72601 -307.9985 1033305646
-244.79936 536.01526 -287.11746 1033282427
-291.29419 521.69226 -283.71762 1033319605
-316.15997 486.90524 -279.25525 1033302023
-324.71722 480.52335 -297.96292 1033329000
-312.45761 508.84912 -308.07471 1033308465
-338.53128 405.04507 -289.73004 1033353160
-375.96732 444.51926 -299.80081 1033384566
-398.97781 423.8905 -280.06915 1033271555
-385.08139 447.26682 -330.86444 1033206594
-417.19043 406.10562 -334.33264 1033327658
-442.08279 367.32938 -322.35709 1033304707
-416.93225 390.18121 -300.56976 1033275984
-492.60968 347.89215 -269.03769 1033333698
-466.76996 347.18265 -330.30746 1033294775
-492.46622 320.81125 -312.25751 1033325645
-505.85825 264.38159 -288.34616 1033311418
-494.38156 257.04117 -258.39157 1033323229
-506.98148 261.52774 -349.14304 1033247530
-544.92126 249.37724 -288.69949 1033306318
-503.4523 220.8257 -286.63818 1033308331
-566.9248 185.60828 -302.16071 1033335309
-566.1369 153.35355 -310.61661 1033273434
-586.96918 163.93369 -281.03479 1033213305
516.19678 -133.88708 -273.44324 1034477099
528.59381 -137.73885 -307.4538 1034501392
534.03394 -137.20331 -299.02802 1034483139
539.03473 -109.62844 -313.21948 1034430794
537.2486 -77.122902 -341.35904 1034363416
551.05963 -56.97504 -279.44452 1034394018
565.73822 -40.388256 -301.85626 1034456698
529.08765 -19.867065 -291.60046 1034443813
545.29803 21.313139 -295.1864 1034333352
566.32684 31.439556 -288.25336 1034493339
584.37689 87.554924 -290.009 1034469448
559.38464 56.106129 -288.17477 1034411198
541.46582 91.04097 -260.49979 1034487434
532.9375 88.897568 -330.73892 1034448645
585.12543 130.28639 -293.09726 1034534544
502.11319 150.15013 -310.6459 1034479515
510.66367 192.12328 -318.97919 1034464885
534.06335 222.97052 -320.22458 1034497768
497.56851 182.06665 -314.88104 1034506224
505.31726 240.51286 -314.43756 1034439920
451.03149 242.76372 -313.14523 1034433746
478.36221 269.65091 -275.17081 1034495889
450.10443 285.8616 -296.88318 1034507835
452.08218 256.05197 -235.87204 1034425291
441.56415 365.42715 -333.36853 1034437505
468.91718 314.21036 -299.11172 1034429049
403.24359 330.74185 -267.66806 1034454013
366.80453 344.30621 -297.20102 1034427707
411.23636 371.90073 -275.03253 1034484347
381.13428 364.38766 -293.64932 1034437773
367.28171 377.2713 -307.60672 1034406366
338.08521 426.8046 -316.46866 1034483675
341.97748 406.71289 -318.72168 1034424083
315.65613 434.37521 -300.7475 1034524880
363.90945 390.90976 -318.617 1034449853
320.78009 436.94769 -270.05045 1034436028
254.32562 447.97858 -300.31195 1034440860
242.63055 505.06952 -288.74976 1034442336
226.40974 472.45193 -280.20142 1034476696
247.68483 487.74182 -293.4313 1034476965
204.02415 513.64172 -294.34552 1034478575
176.14107 491.68988 -312.6897 1034409587
181.15524 522.0437 -328.76947 1034457906
161.56578 541.8299 -302.49579 1034468911
104.91285 546.23822 -298.88446 1034444215
149.5063 540.95953 -292.74304 1034448779
125.72282 561.604 -287.17822 1034428244
130.15244 558.95099 -308.1467 1034430123
46.088211 545.80823 -311.37448 1034463274
62.133625 578.98578 -313.6207 1034446094
25.556273 553.42334 -305.05209 1034390663
14.357588 552.87561 -314.17749 1034430928
-0.36821398 569.83484 -338.7663 1034419922
-36.312794 550.63824 -312.36691 1034480857
-48.254059 564.28491 -299.33878 1034335096
-77.537521 545.51105 -308.6131 1034486628
-98.029144 561.59393 -329.50363 1034459650
-101.20549 526.60858 -284.13843 1034453208
-134.31831 525.13867 -310.90207 1034441531
-145.94466 508.70645 -304.65475 1034450389
-208.89302 546.84711 -323.09634 1034395897
-194.87747 495.19525 -281.10983 1034442202
-208.00221 498.36325 -313.20721 1034390394
-234.20303 499.54205 -320.56833 1034422741
-258.31091 491.86084 -340.01077 1034417103
-275.32397 482.08005 -270.20557 1034482065
-269.22742 482.31805 -280.23376 1034475622
-314.34659 476.03577 -290.39828 1034472670
-324.17395 394.61151 -288.65735 1034527430
-338.11108 420.92502 -326.22403 1034434015
-299.15738 426.1311 -329.15329 1034462872
-336.9957 394.46399 -286.75842 1034466764
-401.18454 416.09735 -259.74356 1034406903
-401.23318 374.58835 -279.56992 1034466630
-373.5697 405.79517 -262.25494 1034469851
-415.81528 392.05356 -288.72845 1034456295
-360.89194 334.66321 -289.41446 1034411198
-439.31851 320.67154 -317.61755 1034491594
-465.47464 302.62659 -295.69464 1034410795
-480.07797 310.8345 -263.79962 1034414016
-482.60504 282.60339 -279.03033 1034388112
-490.95309 236.66225 -294.96103 1034437102
-492.06815 263.10956 -267.18961 1034483407
-499.02029 229.21846 -300.3443 1034530786
-511.20532 190.09126 -373.54449 1034458174
-534.30017 204.93575 -259.37378 1034424754
-511.66031 206.84933 -306.97339 1034401266
-534.16754 146.64803 -291.71643 1034506492
493.9335 -143.22604 -297.54672 1035553793
519.34509 -87.341583 -294.11826 1035613923
489.99112 -119.43591 -290.25287 1035619694
534.12158 -63.330788 -291.28842 1035544935
506.95566 -71.151207 -322.41202 1035554599
536.57764 -27.287766 -290.35483 1035675797
539.96454 -10.348208 -314.57126 1035602649
525.26355 -85.915329 -290.20529 1035504267
518.508 -42.597111 -323.59589 1035624795
533.86719 34.178318 -333.00403 1035621976
512.63245 20.722937 -281.9823 1035627076
509.34067 102.79807 -282.72379 1035622916
499.04343 104.85411 -279.36005 1035614460
527.9292 64.858093 -277.24652 1035554062
519.46643 120.83297 -304.21164 1035565605
481.90607 166.33862 -305.60922 1035643182
456.75055 157.75407 -272.93423 1035588824
495.81763 186.07938 -297.44925 1035567886
514.39911 178.12679 -277.33832 1035567081
483.11783 226.65488 -289.63046 1035541445
476.07748 223.69176 -272.76221 1035585871
446.28766 243.48711 -260.49991 1035656202
442.70761 264.5235 -322.96066 1035605736
447.31232 268.66614 -310.06268 1035684521
416.85751 293.3407 -254.23422 1035593656
418.40872 288.97656 -336.24509 1035612312
392.65964 334.54105 -283.82224 1035514736
379.11487 344.7435 -305.85373 1035667610
415.30923 362.86005 -300.14484 1035590569
382.88565 342.26721 -290.15961 1035498227
380.0574 376.51172 -256.26675 1035567215
355.77701 355.09631 -255.96814 1035600367
325.07446 372.34689 -313.04971 1035634458
344.81693 437.41113 -324.46103 1035583992
315.88715 445.06659 -288.58878 1035673784
294.35608 434.03769 -305.85342 1035599696
263.39322 467.2576 -335.91852 1035662778
246.02122 425.48685 -278.03519 1035598488
247.85509 451.15219 -324.57312 1035573255
240.22087 495.78244 -331.78662 1035528560
211.10394 528.69318 -288.85126 1035572718
187.99603 460.73807 -308.74274 1035557149
155.75803 503.68744 -312.1543 1035535003
137.2189 489.58224 -303.72397 1035575134
130.05412 526.72314 -309.61008 1035489503
134.25841 526.36548 -265.09732 1035633250
115.43015 478.08139 -266.14343 1035590837
26.992752 517.48871 -322.14911 1035665999
59.740101 516.83148 -339.43369 1035517555
56.940853 528.70563 -295.43811 1035615802
35.207714 497.9743 -279.69327 1035661168
-24.110403 527.68195 -280.10797 1035520105
-3.9269652 491.93185 -282.89645 1035688951
-38.514015 520.6615 -317.94073 1035569228
-59.752899 525.36591 -336.6377 1035615265
-53.846474 523.84705 -264.0611 1035585469
-61.231297 544.77319 -326.17007 1035610031
-141.62599 502.37958 -319.90433 1035563323
-122.82755 527.15863 -284.06207 1035623050
-123.33442 520.31464 -238.88318 1035609896
-155.46919 504.06693 -303.93539 1035652443
-164.20201 485.79517 -311.63483 1035643048
-164.30042 484.9072 -303.63065 1035606004
-239.27774 473.77448 -300.63776 1035543727
-226.7628 493.72049 -329.14203 1035566410
-265.50409 438.20325 -304.41479 1035571107
-261.55444 426.70331 -273.40079 1035577684
-226.20393 428.39706 -309.88257 1035529634
-298.96188 412.81589 -297.63773 1035577416
-302.68109 429.35297 -343.59903 1035551512
-310.6842 416.36646 -294.08405 1035553525
-347.76001 396.63135 -302.66315 1035562652
-323.45572 352.62817 -271.76532 1035598488
-379.67899 384.77478 -288.06897 1035622513
-375.68369 360.74185 -276.08255 1035581845
-372.68982 319.62015 -289.55884 1035621171
-406.68747 331.76587 -292.91925 1035559565
-427.03098 291.32324 -274.21555 1035514870
-443.01016 264.26096 -307.57809 1035615265
-396.45941 253.78802 -310.04398 1035569497
-459.2847 256.73251 -292.15009 1035592314
-436.72791 264.33643 -286.30301 1035565873
-461.73267 216.44553 -291.80869 1035591106
-502.7934 204.87694 -320.52481 1035607078
-504.61105 230.49847 -289.5762 1035561310
-479.43417 160.37396 -274.93616 1035531379
-497.82321 149.20033 -286.81985 1035555404
-512.46674 113.73139 -327.35559 1035642377
-1227.1235 234.21924 187.54868 1003681244
-1265.7778 213.11858 217.48752 999826511
-1308.9421 90.471756 268.02426 999865165
-1325.6373 96.492371 233.26208 1000071324
-1317.7993 48.489307 263.64798 1000103536
-1285.2379 -45.705647 237.0451 999970392
-1336.4214 -43.918446 215.48926 1000036964
-1278.2332 -119.26187 233.7989 1000082061
-1309.7024 -134.61914 257.20496 999777118
-1309.4878 -199.79753 266.54361 999633237
-1332.3752 -264.38217 252.15422 999281050
-1281.4794 -281.90234 225.57271 998860143
-1325.5874 -350.41498 225.0193 998628215
-1237.0416 -369.68478 254.10135 1001885947
-1197.2654 -390.38947 244.88766 1001299684
-1210.4606 289.78836 189.01097 1003550247
-1302.8265 233.22852 200.308 999656859
-1318.2275 210.21722 197.77811 999562370
-1290.3557 146.69708 205.92302 1000133601
-1360.3849 82.032234 180.67929 999371244
-1313.2512 55.055393 229.15665 999461438
-1313.4237 -20.642225 229.42015 1000075619
-1362.1519 -78.284546 218.2767 999523715
-1351.0176 -127.14726 198.39304 999334737
-1333.3549 -117.05497 211.26057 1000039111
-1350.4415 -238.52953 203.44553 998939600
-1284.0201 -257.59335 195.37575 998632510
-1328.7053 -322.04221 194.18669 999102809
-1306.5923 -337.57443 218.22984 998422056
-1317.7828 -397.55609 217.85049 998334009
-1208.0081 -408.90857 208.2019 1001338339
-1194.9323 302.08401 167.28815 1003167995
-1221.3135 288.35135 174.32805 1003715603
-1316.6218 222.20909 190.40178 999495798
-1305.8497 171.93796 168.96555 999798593
-1305.3674 158.06966 138.08218 1000350497
-1335.5227 100.22166 187.97752 999500093
-1386.3167 16.831024 180.0878 999596730
-1293.1777 -22.920481 156.54008 1000374119
-1316.7938 -55.81818 187.81313 999635385
-1357.7745 -88.083 163.13428 999480766
-1370.1227 -136.58994 170.26015 1000189435
-1347.5012 -196.7523 178.77245 999023352
-1329.0354 -220.54669 183.41554 998757064
-1308.0554 -300.88138 151.47002 999281050
-1339.0973 -368.14795 164.34174 998535873
-1351.2738 -393.2319 166.70447 998041415
-1211.8333 -415.5488 169.57607 1001014069
-1221.3488 -447.84055 152.36087 1000784288
-1246.1176 310.30478 122.57942 1003279664
-1306.2423 307.37878 143.74176 999628942
-1341.8578 238.93387 146.46487 999650417
-1330.3849 183.25671 140.9075 999869460
-1299.8965 118.54864 126.78204 1000359087
-1304.8796 87.778503 141.07358 999712694
-1328.8474 45.933079 169.1568 999729874
-1314.7771 -26.744989 153.63805 1000530885
-1356.5715 -70.623085 173.05098 999736316
-1347.8964 -103.48713 141.58867 999607467
-1303.6443 -153.19312 169.84976 1000344054
-1322.2573 -209.60199 173.32478 999162938
-1309.8807 -236.28841 126.98203 998877323
-1334.0927 -324.38193 148.23274 999420636
-1345.0547 -370.62329 137.14658 998722704
-1330.5371 -388.37335 130.94969 998243278
-1348.9645 -451.61615 163.00485 997796602
-1236.5978 -424.27109 136.87576 1000936760
-1228.7589 -506.83777 120.86391 1000217353
-1336.4453 351.17685 105.01614 999407751
-1390.7261 288.33694 109.37419 999371244
-1317.613 232.0265 118.19615 999710546
-1321.6915 192.52538 48.151093 1000000457
-1313.2065 110.9562 141.11667 1000502968
-1348.2118 108.21915 91.168457 999736316
-1352.8234 55.030132 99.979568 999837248
-1317.4291 -9.3552189 88.86409 1000518000
-1324.5946 -70.399353 115.28115 999845838
-1298.1749 -121.50636 110.51953 999755644
-1331.7944 -134.261 130.31798 1000511558
-1354.9779 -220.43011 102.49104 999296082
-1351.7129 -260.13687 127.48936 998978255
-1320.9324 -281.03012 120.76306 999461438
-1339.4858 -323.91843 129.73935 998851553
-1310.5138 -422.96768 109.21156 998336157
-1322.2336 -481.64755 161.31801 997414350
-1294.6437 -516.4743 105.98624 996933313
-1214.7731 -510.14972 98.706284 1000219500
-1333.6951 353.48065 123.05737 998978255
-1339.7999 280.9982 91.464119 999439964
-1299.385 252.56667 87.240837 999852280
-1323.0569 166.4088 59.404785 1000094946
-1297.2701 108.5633 53.442101 1000556655
-1311.1274 124.06262 82.326393 1000236680
-1240.8123 -3.5044005 61.24839 1004901014
-1214.7665 23.928144 68.717712 1005768598
-1209.6604 -35.634613 92.052597 1006004821
-1195.2183 -94.996063 88.662033 1006019853
-1201.0902 -106.51328 98.666161 1005532375
-1221.0353 -184.37347 102.81619 1004544532
-1335.8616 -263.49698 72.148865 999420636
-1323.3016 -319.28125 50.617661 999607467
-1325.9913 -336.15454 73.163559 998900945
-1306.385 -364.72681 103.93693 998404876
-1324.6727 -440.67896 41.492165 997410055
-1332.0507 -562.05145 70.226425 996426507
-1270.623 -558.94604 72.828484 996057140
-1230.6191 -558.01611 92.399452 999448553
-1302.6287 319.06601 99.155357 999074891
-1310.4158 281.87088 85.251266 999478618
-1316.4019 223.90668 58.826893 999852280
-1344.608 220.72412 48.286827 1000208763
-1295.5634 159.1622 39.277172 1000374119
-1326.2269 60.568653 48.656406 1000610342
-1322.3145 40.487301 46.671169 1000685504
-1311.683 2.3894427 42.772881 1000732749
-1325.0165 -52.531979 94.607384 1000034816
-1335.8448 -121.15434 23.337894 999807183
-1312.1782 -175.62247 45.984325 1000614637
-1308.1056 -232.1946 35.697758 1000079914
-1348.3932 -260.22018 83.889877 999811478
-1320.9738 -301.54703 61.106541 999420636
-1305.0433 -345.51138 65.034492 998993287
-1314.7642 -403.71902 65.173973 998432794
-1317.5319 -488.3009 50.503933 997659163
-1316.1997 -532.40375 66.341766 996486637
-1245.2972 -539.9964 66.868408 999555928
-1210.5852 -566.52533 62.50576 999558075
-1206.559 -629.62659 43.994843 998681902
-1321.1558 318.09381 23.405922 999070596
-1298.2037 287.34372 44.91993 999588140
-1338.3391 246.26698 18.207577 999912410
-1300.7122 161.86397 21.396935 1000288220
-1354.5179 158.67111 -3.8748112 1000432101
-1324.0902 71.44635 67.976341 1000631817
-1353.2306 39.708675 35.515484 1000719864
-1332.1365 37.068882 57.623959 1000848713
-1329.6759 -62.323517 11.617989 1000071324
-1356.5149 -96.774841 38.558937 999918852
-1284.5686 -153.68852 35.815956 1000737044
-1317.39 -210.37592 10.082242 1000176550
-1288.5718 -237.85843 60.027916 1000580277
-1293.5437 -291.31277 14.658781 999435669
-1300.4818 -358.75336 27.334019 999040532
-1330.6779 -369.28915 74.951248 998561643
-1331.4587 -418.42447 44.51284 997633393
-1302.2699 -468.44128 -8.2798004 996559651
-1297.9126 -563.22931 44.987591 995387125
-1295.2784 -602.56842 17.703144 994721405
-1204.3232 -640.59772 -0.67506462 998722704
-1320.7589 369.10217 -55.572746 999109251
-1347.4526 233.85854 22.154594 999525863
-1310.1179 268.51807 -14.221538 999957507
-1331.4946 216.07501 -6.630794 1000146486
-1322.22 168.68893 17.29184 1000320432
-1318.8047 68.387558 -13.099154 1000648997
-1223.6353 49.546761 -19.571833 1005012684
-1203.4451 -2.5972381 3.93244 1005762155
-1238.554 -29.500702 13.562975 1006135818
-1226.321 -100.12408 -25.15546 1006262519
-1222.1699 -134.674 -6.1466398 1005568882
-1231.333 -180.61511 11.579724 1004673381
-1326.1346 -284.51166 -13.906004 999832953
-1362.3315 -315.9823 2.9002678 999482913
-1320.0797 -362.72989 20.220182 998986844
-1336.3815 -406.51028 13.993407 998484333
-1321.672 -465.27231 -21.946564 997779422
-1316.3535 -496.82425 -23.016417 996598306
-1320.8876 -522.39551 -9.4680595 995357060
-1230.7448 -658.7785 30.866407 998336157
-1289.0361 342.23721 -48.229221 999094219
-1342.7756 282.09933 -22.860176 999476471
-1319.3792 260.34793 -28.140728 1000191583
-1300.7919 150.4819 -8.1515818 1000560950
-1295.0516 105.18388 -25.99424 1000762813
-1341.0981 102.06725 -8.2672634 1000876630
-1288.5166 63.954258 -42.714451 1004370586
-1237.3278 -14.90948 6.9934764 1005113615
-1222.974 -49.915867 -21.78348 1005401378
-1259.1857 -84.364647 -17.509348 1005495867
-1220.3164 -125.17749 -0.78217816 1004974029
-1255.4302 -166.97614 -44.087948 1003822978
-1338.8763 -267.17697 -8.907361 999817921
-1312.7854 -240.50533 -15.366421 999628942
-1305.4034 -368.86276 -42.323795 999173676
-1299.4841 -347.79144 -23.073036 998696934
-1331.2188 -466.45038 -41.951244 997680638
-1346.479 -505.64377 -54.779064 996452277
-1295.5507 -562.9101 -32.478176 995279751
-1359.3105 -641.53284 -56.687119 992513792
-1307.5663 377.86148 -46.901318 999010467
-1334.0182 304.50638 -45.656399 999448553
-1358.2637 253.23346 -86.766914 999412046
-1355.6335 190.2182 -82.32132 999497946
-1336.4741 148.51541 -79.714455 999729874
-1304.4719 95.807587 -40.41293 1000910990
-1315.7733 40.316471 -44.063061 1000689799
-1314.7828 5.2142177 -61.067287 1000672619
-1324.1957 -65.210648 -58.613567 1000923875
-1309.6938 -91.790848 -88.827637 1000895957
-1319.6454 -186.42091 -74.739372 1000659734
-1329.9327 -198.02162 -54.879967 1000094946
-1320.77 -245.4431 -70.295097 999762086
-1371.4618 -277.61926 -40.495987 998802161
-1341.7386 -346.05319 -96.423393 998318977
-1373.0605 -411.79132 -35.554962 997465889
-1306.5792 -476.94269 -69.505676 997517429
-1362.9343 -527.20221 -65.116241 996430802
-1301.7972 -572.1297 -85.983673 995322700
-1305.8458 309.87631 -96.335106 999021204
-1302.3337 276.54578 -118.21856 999420636
-1320.7891 215.79147 -107.9397 999306820
-1319.6951 214.57639 -99.40406 999433521
-1345.6952 134.47874 -119.36329 999648269
-1335.3761 97.401588 -80.841461 1000797173
-1329.2336 38.997345 -110.83559 1000593162
-1330.6222 -15.727537 -98.561089 1000627522
-1329.249 -66.037598 -81.999031 1000028374
-1304.2036 -136.7104 -102.59104 999938180
-1288.6562 -173.62881 -88.489716 1000543770
-1300.0073 -222.08138 -89.58432 999981129
-1329.9381 -204.96188 -90.83445 999639680
-1357.4247 -304.80545 -102.18138 998649690
-1324.2697 -340.54272 -101.95982 998297502
-1325.7744 -408.93011 -111.76582 997401465
-1306.3794 -442.11478 -100.3074 997470184
-1295.459 -486.0296 -79.026062 996259003
-1331.057 -585.86322 -118.77041 995155197
-1297.2178 313.45636 -92.79393 998928862
-1348.2085 337.1283 -173.62109 999321852
-1323.2645 248.67998 -155.28519 999296082
-1323.6815 164.953 -110.20579 999474323
-1342.5903 120.25665 -125.57627 999637532
-1326.9834 105.80161 -176.56432 1000633964
-1268.1973 77.735703 -146.54996 1000483641
-1290.2196 21.560246 -141.97972 1000479346
-1365.5551 -45.574947 -166.38745 999946770
-1364.588 -90.134796 -124.66979 999813626
-1317.5422 -160.08864 -143.42404 1000470756
-1315.4318 -174.6232 -140.58372 999899525
-1342.2322 -254.86092 -136.93872 999562370
-1313.4065 -308.00531 -105.18121 998585265
-1365.249 -375.35352 -119.02518 998170264
-1332.3236 -419.42514 -132.88861 997251141
-1343.4539 -413.45538 -149.2986 997255436
-1324.8429 -503.17798 -133.07829 996091500
-1287.6818 -601.5047 -88.907829 995060707
-1317.8381 336.90292 -163.43593 998750621
-1336.7096 291.64496 -164.81583 999195150
-1333.5847 258.50046 -140.42162 999135021
-1281.9115 170.56871 -150.4895 999132873
-1328.2024 126.04286 -167.7934 999444258
-1311.3597 103.04974 -136.32454 1000429953
-1318.0779 35.882725 -172.05202 1000397741
-1317.4038 7.5834842 -118.12098 1000356939
-1304.0923 -54.091812 -168.55148 999847985
-1322.5221 -75.583267 -175.18816 999656859
-1314.88 -132.51398 -173.64297 1000234532
-1301.5095 -230.14236 -142.10313 999863018
-1366.2 -248.72029 -164.31926 999427079
-1329.5798 -317.31528 -144.10976 998477891
-1326.1088 -341.54651 -166.82309 997873911
-1343.2245 -420.91916 -197.85471 996967673
-1286.8315 -450.74179 -163.23088 997109407
-1311.3425 -529.59387 -167.59224 996014190
-1321.6722 -532.70081 -210.69968 994833074
-1289.14 308.70203 -164.58798 998651837
-1309.3986 325.74374 -186.13078 999081334
-1333.7747 252.01816 -184.01028 998931010
-1380.0389 214.29726 -176.65686 999145758
-1331.8553 139.79086 -188.47554 999313262
-1297.939 95.643196 -209.96147 1000348349
-1323.4211 29.921955 -177.02617 1000240975
-1317.8221 -32.782578 -196.13544 1000202320
-1328.7452 -64.639671 -204.67419 999643974
-1353.1564 -104.20738 -176.89236 999616057
-1282.6703 -149.86667 -187.91725 1000129306
-1304.5023 -213.9529 -221.44385 999585992
-1307.7595 -218.58099 -202.91733 999278902
-1336.4843 -327.67938 -188.46207 998596002
-1329.2933 -345.54367 -183.43317 998015645
-1330.2495 -421.57834 -196.58432 997345630
-1340.9606 -452.04108 -219.64644 996847414
-1318.891 -540.2691 -170.44353 995700658
-1297.2732 -551.04163 -221.75336 994553901
-1314.7568 326.21378 -198.88974 998422056
-1360.5637 295.64539 -203.79713 998834373
-1322.3029 274.56921 -218.33798 999452848
-1322.3325 181.86269 -208.39749 999697662
-1313.314 115.55951 -259.86807 1000150781
-1323.8011 103.11449 -187.74637 1000152928
-1339.3457 21.590343 -212.75363 1000064881
-1309.6616 -23.422123 -225.29231 1000004752
-1351.9165 -71.764488 -216.99123 999467881
-1336.7806 -110.62341 -262.15991 999418489
-1310.6799 -128.16574 -222.88667 999858723
-1291.5055 -215.93121 -223.43674 999465733
-1315.7883 -234.7462 -246.72162 999160791
-1319.3081 -292.8699 -234.51529 999004024
-1298.8368 -371.22748 -232.93115 998533725
-1316.1644 -439.79913 -220.39948 997560378
-1320.6322 -461.40356 -248.0188 996602601
-1313.665 -517.97504 -227.53606 995468729
-1333.6531 -578.0611 -259.78571 994201714
-933.74695 -745.93457 -197.31487 1007471015
-1293.573 332.09637 -277.94424 998318977
-1313.3309 281.15042 -232.08183 998634657
-1317.9153 214.53047 -227.71115 999019057
-1298.9413 170.71782 -220.91942 999285345
-1355.3721 116.48618 -309.3902 999497946
-1329.3308 94.808723 -246.60493 999716989
-1343.3038 33.445278 -263.16403 999751349
-1278.7887 -4.0505118 -258.59985 999742759
-1367.9292 -93.35141 -251.65479 999270312
-1346.7505 -105.58717 -270.50067 999135021
-1360.4232 -151.41408 -248.03149 999695514
-1307.4061 -188.09253 -243.84686 999225215
-1333.0062 -263.31512 -229.96687 998898798
-1330.715 -288.88605 -257.45905 998606740
-1329.5684 -335.17999 -256.10968 998058595
-1331.9993 -435.81348 -264.74695 997225371
-1324.3599 -451.30264 -243.32622 996125859
-1353.9714 -502.37152 -247.76611 995103657
-1321.2838 -570.93475 -306.2244 994528132
-919.92999 -799.21533 -208.25427 1007231571
-790.30359 -776.83685 -221.65543 1010110273
-753.76367 -777.56354 -205.71135 1012107433
-1283.4148 338.34186 -318.19022 998361927
-1324.1338 278.67386 -343.69183 998834373
-1315.548 180.54723 -297.05896 999162938
-1275.744 185.96283 -311.53726 999487208
-1283.3328 109.60909 -278.009 999667597
-1319.7615 116.19584 -297.11218 999852280
-1338.1431 31.607809 -304.14398 1000004752
-1312.025 38.49551 -287.42108 999940327
-1328.1722 -27.435642 -258.29684 999111399
-1313.9254 -100.63172 -270.89801 998926715
-1343.0648 -159.53995 -267.15207 999686924
-1318.6494 -190.28246 -253.99203 999427079
-1303.5706 -231.48761 -290.75946 999044827
-1310.7999 -303.74692 -302.19107 998769949
-1294.5802 -373.11017 -292.48233 998297502
-1276.2628 -397.80002 -285.68423 997315565
-1326.7751 -430.54938 -308.85294 996439392
-1314.3688 -505.1875 -304.8024 995395715
-1317.4811 -552.70544 -308.88141 994291908
-1281.6211 -574.38129 -286.98758 994442232
-1268.5735 -650.95898 -277.68256 994510952
-1259.8627 -700.06348 -306.68643 994468002
-1241.0198 -735.22693 -304.21164 994459412
-1155.2467 -759.46259 -309.27509 994412167
-1127.2483 -829.38812 -269.88635 994442232
-1103.308 -840.0553 -271.4682 995580399
-898.89526 -745.73218 -271.82498 1007044740
-1039.8564 -938.86072 -311.90683 994382103
-1048.1135 -1013.5745 -293.8645 994476592
-965.02704 -1010.3904 -314.48056 994450822
-961.64758 -1057.2546 -284.04672 994442232
-898.94684 -1044.8502 -307.54514 994390693
-568.4696 -738.66437 -218.82622 1016700363
-838.46057 -1112.8423 -317.10834 994459412
-798.12939 -1165.0979 -293.10202 994412167
-768.78833 -1217.4751 -262.30304 994394988
-719.5658 -1231.7677 -326.15128 994523837
-663.28632 -1238.7031 -277.57794 994480887
-610.06494 -1307.3584 -298.26562 994394988
-613.93237 -1285.9116 -294.39105 994369218
-551.30182 -1372.4633 -293.1293 994433642
-500.59998 -1301.72 -312.36368 994519542
-420.19656 -1358.3159 -271.70267 994532427
-417.97003 -1408.3927 -303.73035 994437937
-389.4187 -1399.4594 -313.68436 994425052
-271.47458 -1393.2788 -293.63464 994425052
-247.01732 -1413.941 -311.57159 994450822
-175.16174 -1400.5256 -311.77661 994459412
-93.859055 -1419.532 -297.99274 994472297
-71.144928 -1432.7655 -296.13986 994437937
-16.722281 -1417.8396 -289.5665 994446527
38.203682 -1403.6658 -271.47357 994373513
77.879311 -1447.4979 -307.16672 994450822
162.04475 -1427.198 -287.01627 994403577
186.41058 -1403.6256 -305.47778 994502362
239.64684 -1447.298 -299.58221 994420757
256.36566 -1408.9572 -307.78714 994450822
355.8143 -1364.7218 -281.0177 994420757
366.64499 -1373.1661 -273.79132 994450822
430.32434 -1367.0631 -310.92133 994394988
523.41498 -1349.3876 -310.47183 994407872
-1262.2556 338.75568 -306.01102 1001138623
-1271.6525 265.93796 -285.25677 1001172983
-1275.7761 200.24002 -302.29727 1001140771
-1252.5898 179.95529 -280.1149 1001228817
-1252.2074 110.14689 -290.86411 1001119296
-1285.8378 61.862129 -311.2323 1001138623
-1267.5823 40.298679 -243.41789 1001185868
-1246.5402 -60.772099 -294.11261 1001149361
-1265.3561 -66.828804 -363.48569 1001170835
-1288.7937 -89.371048 -308.5983 1001134328
-1256.6385 -123.37219 -318.75748 1001160098
-1247.2264 -196.83688 -312.64401 1001194458
-1258.2427 -239.06752 -297.55453 1001190163
-1237.4275 -256.10385 -269.64658 1001160098
-1210.8309 -319.83865 -296.67572 1001226670
-1223.923 -385.53473 -263.36731 1001108558
-1200.2166 -439.13751 -306.88797 1001145066
-1184.584 -424.5383 -289.4754 1001211638
-1166.6919 -496.55191 -300.99631 1001157950
-1171.4305 -511.44766 -270.72571 1001198753
-1131.6016 -569.16699 -317.71472 1001228817
-1113.1669 -659.18945 -284.36163 1001080641
-1106.4764 -670.06116 -244.88179 1001074199
-1055.7151 -691.35291 -300.83951 1001256735
-1039.2264 -711.4502 -330.14755 1001181573
-979.9928 -767.13153 -321.98511 1001170835
-924.07202 -773.76599 -274.07059 1006878310
-964.25323 -846.82837 -334.24808 1001194458
-925.04303 -872.82538 -313.76434 1001155803
-898.58264 -957.3407 -260.0459 1001233112
-867.22052 -967.55676 -285.28101 1001153655
-850.06891 -991.09552 -284.6243 1001226670
-800.39594 -1026.5002 -331.806 1001233112
-750.06946 -1049.3752 -271.10535 1001207343
-715.73151 -1055.9561 -318.25 1001243850
-676.67328 -1083.6483 -278.52145 1001168688
-620.0686 -1093.3145 -340.9231 1001140771
-581.0943 -1130.6066 -325.81207 1001226670
-550.46741 -1131.9889 -306.89792 1001207343
-507.63391 -1135.9119 -289.40619 1001198753
-473.27054 -1208.5553 -297.72122 1001215932
-409.30145 -1223.1267 -294.42551 1001190163
-375.73624 -1217.6418 -292.91492 1001203048
-334.59344 -1201.5731 -299.39215 1001151508
-319.7977 -1190.6053 -306.40497 1001215932
-263.03366 -1274.8927 -281.63715 1001160098
-209.32117 -1252.7622 -261.39615 1001192310
-161.36681 -1276.7632 -301.61887 1001203048
-124.7537 -1248.9954 -265.71616 1001110706
-86.538048 -1254.2235 -289.20203 1001188015
-17.676868 -1302.641 -255.78157 1001166540
41.268703 -1296.0914 -277.08856 1001125738
85.4925 -1297.9447 -302.01218 1001211638
88.704468 -1309.0409 -290.79425 1001243850
161.3338 -1274.9019 -280.62842 1001151508
208.92082 -1235.4623 -303.96561 1001168688
254.04364 -1248.1783 -297.85672 1001190163
284.50659 -1220.4698 -305.42996 1001149361
352.40741 -1228.5121 -298.79315 1001065609
412.76031 -1224.236 -312.91492 1001215932
429.93399 -1170.7565 -289.78137 1001215932
-1124.141 282.80652 -326.97357 1007201506
-1115.4406 257.19482 -325.07574 1007143524
-1146.217 204.27615 -301.50687 1007178958
-1153.8368 150.66724 -244.99379 1007197211
-1176.7244 80.231926 -303.93704 1007248751
-1140.9275 85.334747 -277.76923 1007259488
-1156.1763 11.432004 -291.06339 1007241235
-1182.7961 -3.9733758 -283.62292 1007176810
-1156.2014 -31.706844 -289.26126 1007200433
-1167.5691 -84.218071 -302.90704 1007207949
-1147.1541 -162.83636 -285.01743 1007248751
-1108.0902 -168.37837 -301.93994 1007221907
-1172.967 -201.71164 -272.41415 1007122049
-1149.0728 -231.02142 -294.09299 1007198285
-1090.069 -296.76291 -281.74478 1007174663
-1110.2893 -333.78705 -312.33932 1007094132
-1085.6545 -411.52194 -313.15033 1007080173
-1072.6448 -432.91684 -309.0506 1007192916
-1058.8644 -426.85886 -293.21518 1007211170
-1017.0706 -491.67114 -280.27875 1007164999
-1043.5111 -523.77386 -276.96802 1007211170
-1015.9968 -539.88208 -292.8623 1007250898
-964.25525 -594.92926 -290.76276 1007163925
-975.86499 -663.52655 -294.00214 1007181105
-965.88788 -692.61768 -349.43643 1007176810
-904.52319 -702.59534 -298.20493 1007197211
-891.08038 -741.02875 -338.06577 1007167147
-882.14825 -776.96539 -313.02002 1007225129
-853.66296 -812.26312 -341.6532 1007175736
-810.87354 -820.97791 -319.96356 1007177884
-763.51385 -872.32153 -322.70328 1007212244
-775.02441 -875.40765 -278.84952 1007188621
-744.3775 -921.22693 -275.53494 1007198285
-674.39471 -915.66364 -260.10532 1007190769
-660.46863 -993.95135 -288.13684 1007152114
-595.7735 -979.89777 -285.9483 1007207949
-538.01892 -995.34967 -320.77106 1007243382
-554.78467 -1002.6653 -281.38846 1007172515
-488.63641 -1041.0314 -299.39056 1007128492
-471.63437 -1060.6338 -314.36551 1007211170
-402.89011 -1092.244 -295.45312 1007159630
-394.06967 -1066.0707 -312.36987 1007178958
-362.40854 -1112.7059 -312.4364 1007238014
-300.25867 -1118.8065 -279.50693 1007160704
-277.06866 -1119.2889 -286.27805 1007241235
-226.50323 -1147.4955 -281.7446 1007147819
-159.23283 -1152.4408 -305.28748 1007183253
-187.51263 -1104.9487 -298.89862 1007216539
-83.891159 -1170.3131 -254.37372 1007242308
-57.36813 -1154.8988 -319.23059 1007170368
-14.923846 -1160.5063 -276.50174 1007169294
14.490192 -1122.6307 -295.93646 1007166073
49.332207 -1179.8901 -273.65952 1007210096
68.584648 -1152.7852 -290.0705 1007192916
167.10579 -1130.3666 -290.01126 1007137082
160.22607 -1149.3309 -318.47281 1007178958
204.91748 -1139.9282 -306.84665 1007183253
263.01321 -1115.3098 -299.11172 1007166073
341.10275 -1143.4401 -275.16528 1007158557
358.41275 -1100.0669 -286.19205 1007140303
404.47855 -1098.9696 -329.50177 1007251972
-1025.2128 263.01059 -300.49277 1011368698
-1053.2863 240.40442 -342.87476 1011354740
-1039.0529 190.34543 -306.45679 1011432049
-1067.7258 156.79317 -281.52908 1011362256
-1035.3729 96.066246 -313.15097 1011319306
-1023.0878 78.132271 -237.15584 1011369772
-1048.8861 39.63549 -280.168 1011365477
-1064.6718 -7.1555929 -338.53253 1011404132
-1063.2628 -61.556194 -311.62463 1011403058
-1060.8588 -79.609726 -271.29749 1011392321
-1029.7126 -92.097389 -278.12375 1011316085
-1062.4633 -140.21042 -283.98215 1011326822
-998.36914 -164.903 -326.85849 1011378362
-1042.0402 -255.28044 -253.91045 1011418090
-1040.985 -252.50821 -298.61523 1011351518
-1025.9006 -308.08908 -279.70038 1011455671
-971.88586 -334.67017 -327.56836 1011353666
-671.74359 -258.87506 -229.89023 1029980402
-637.02612 -315.91156 -220.07408 1030036774
-936.86676 -437.33362 -276.54352 1011332191
-958.38129 -478.91577 -313.11154 1011368698
-929.32446 -559.12421 -329.45319 1011374067
-892.15503 -547.36084 -293.05118 1011382657
-846.45142 -604.68823 -334.52911 1011305348
-876.03809 -612.92249 -340.79999 1011425607
-836.88153 -630.28613 -298.44952 1011440639
-815.57581 -644.75732 -301.31735 1011397689
-780.0235 -730.80273 -270.55368 1011413795
-760.22382 -727.40228 -330.54855 1011462114
-752.40033 -739.62122 -308.74222 1011330044
-690.04456 -810.36987 -290.63983 1011369772
-652.35028 -838.41565 -325.09192 1011393394
-641.48737 -893.96802 -256.34598 1011361182
-583.66254 -842.38141 -284.73273 1011378362
-613.9054 -859.95959 -295.94397 1011338634
-553.39948 -890.70599 -306.06268 1011365477
-540.49133 -892.81488 -281.44998 1011367625
-502.51691 -952.38055 -270.51517 1011426680
-487.65463 -929.46997 -326.95551 1011290315
-421.24203 -986.1402 -282.81937 1011316085
-394.50739 -1021.2744 -301.50888 1011316085
-352.13965 -977.72473 -329.29883 1011258103
-328.45261 -981.71222 -328.50183 1011344002
-245.7662 -1000.9648 -309.41925 1011274209
-248.39349 -1045.3683 -317.37497 1011322527
-205.50728 -1052.4695 -290.34946 1011377288
-200.63847 -1045.0261 -298.34045 1011289241
-107.29662 -1052.723 -323.42606 1011408427
-103.12341 -1074.835 -347.78073 1011357961
-56.061558 -1088.4869 -311.56964 1011345076
-29.851719 -1067.4839 -325.55582 1011337560
18.656708 -1076.5535 -299.78268 1011292463
71.615723 -1079.9875 -324.74295 1011498621
100.18024 -1015.6067 -295.6358 1011335412
145.18802 -1075.2692 -327.63776 1011312864
175.17181 -1022.5539 -314.30511 1011323601
206.73697 -1034.5117 -311.75931 1011357961
253.24179 -1021.0768 -273.69241 1011322527
279.24445 -1009.0685 -299.24094 1011352592
316.22284 -1008.5096 -299.54163 1011325749
347.25949 -962.79749 -259.23901 1011297831
-969.61487 254.67671 -294.54407 1015716279
-983.90442 225.34047 -302.18628 1015735606
-983.57751 162.51886 -289.00247 1015676551
-995.68427 123.27013 -289.28577 1015666350
-992.5058 111.05543 -290.43558 1015701783
-973.83893 75.803925 -324.08826 1015752249
-673.76599 -13.46771 -174.5452 1032714015
-672.6684 23.423027 -169.04491 1032645832
-664.63519 -15.308893 -174.44197 1032664086
-613.09259 -8.3591394 -174.71455 1032712404
-598.21606 -31.366869 -215.588 1032648248
-603.3996 -119.77221 -213.71521 1032630800
-646.19189 -152.42723 -189.77766 1032639658
-602.31946 -184.86307 -217.89032 1032530539
-668.69757 -154.94774 -192.0627 1032315388
-615.70105 -157.79372 -199.75308 1032043194
-622.12115 -219.59122 -158.0087 1031730065
-669.0766 -256.28052 -225.00082 1031178430
-606.02307 -269.93826 -197.98224 1030565592
-626.78516 -249.46829 -196.22118 1029730757
-887.20325 -471.78909 -293.71365 1015629843
-867.39801 -483.83838 -311.28778 1015643801
-813.15887 -492 -318.28754 1015696415
-802.27533 -508.77585 -307.89474 1015645412
-829.90625 -606.36414 -295.65417 1015671719
-813.24451 -550.60266 -291.85602 1015702857
-746.65277 -614.81635 -271.89545 1015707689
-759.8288 -653.1275 -292.90909 1015700173
-698.87512 -692.16394 -292.1543 1015652928
-684.44531 -704.12024 -271.99515 1015645949
-626.25562 -721.67889 -291.33429 1015654539
-597.39838 -717.91785 -337.83835 1015665276
-608.49249 -752.59869 -293.6373 1015678698
-598.70264 -759.19977 -309.80969 1015683530
-520.37628 -816.28485 -288.48569 1015673866
-504.06659 -841.19482 -306.18597 1015685677
-513.57159 -858.37817 -303.83731 1015691583
-449.70282 -879.79993 -300.54022 1015714131
-392.70035 -856.552 -317.30469 1015732922
-414.21259 -897.52563 -309.60135 1015665276
-393.487 -919.86322 -323.27863 1015673329
-348.32971 -921.25159 -330.74136 1015698025
-255.35884 -970.54071 -314.00403 1015673329
-283.86536 -915.79602 -295.19403 1015717353
-214.32243 -947.45117 -309.6217 1015750639
-192.63957 -951.28864 -270.60321 1015695878
-172.12665 -947.20319 -298.41611 1015626622
-123.89407 -935.64447 -320.18073 1015605147
-76.139671 -965.81921 -287.01428 1015679772
-29.575254 -946.92688 -303.996 1015729164
-28.19112 -969.60046 -297.76935 1015707152
-0.51190454 -981.46375 -313.72363 1015676014
67.837212 -971.83368 -304.8244 1015671182
87.172432 -967.09521 -294.17023 1015679235
98.679832 -979.07489 -301.19379 1015666887
130.13959 -950.31274 -296.68137 1015692120
187.23599 -949.73175 -333.20123 1015740438
234.9248 -906.78815 -320.50171 1015686214
274.51483 -968.80609 -313.51819 1015684067
322.04572 -918.58209 -327.9845 1015694804
307.15747 -962.20819 -273.32669 1015703931
-879.60065 198.76524 -305.95139 1018579948
-875.79608 161.00694 -296.91055 1018630414
-865.00183 176.1974 -293.82111 1018484385
-891.323 107.99831 -332.86038 1018649742
-910.59351 71.631195 -320.65677 1018586928
-643.30511 62.951847 -208.23164 1032856017
-618.75696 44.592529 -225.79404 1032973189
-633.49377 8.9028244 -230.43379 1032905678
-623.52258 -7.3167572 -180.41045 1032901248
-644.90295 -62.360088 -206.90536 1032871586
-644.30707 -65.879318 -209.8869 1032735490
-619.17615 -113.23264 -237.32423 1032643148
-645.37305 -119.82581 -205.16864 1032554296
-630.90851 -157.1787 -239.21806 1032358203
-628.95923 -169.48445 -184.0125 1032122517
-697.00262 -171.44444 -211.17035 1031878375
-603.21515 -221.15233 -204.16974 1031417337
-617.48785 -226.4843 -225.97076 1030731216
-641.45483 -271.04858 -230.0215 1030206156
-653.30872 -274.40668 -241.11153 1029552785
-784.76733 -394.54129 -282.13708 1018615382
-794.84406 -433.24747 -321.19095 1018541831
-769.40906 -448.76114 -339.48935 1018646520
-757.37878 -486.6348 -300.11041 1018520356
-713.35913 -536.89709 -328.03531 1018585854
-733.12445 -547.49487 -277.42636 1018548810
-685.85876 -585.85541 -324.46582 1018531093
-661.58954 -595.4483 -295.37823 1018598739
-638.43109 -608.8299 -291.46143 1018666921
-621.75531 -642.96991 -283.20694 1018602497
-601.01483 -707.12543 -308.86224 1018544515
-588.21765 -692.36493 -286.37128 1018583707
-571.17523 -707.15106 -322.52609 1018581022
-553.56952 -749.3139 -294.93054 1018586391
-500.3941 -748.12006 -301.07452 1018526798
-470.34103 -751.61932 -347.51221 1018576190
-476.87573 -763.28149 -327.4339 1018557937
-430.26895 -793.07147 -306.13977 1018670680
-416.56085 -814.28278 -300.6514 1018550421
-351.44778 -804.94232 -299.14792 1018653500
-347.32629 -838.37427 -287.25858 1018568674
-315.54819 -859.58484 -283.6684 1018532167
-272.66336 -842.65509 -284.65045 1018611624
-257.71381 -918.06274 -283.23248 1018598739
-218.15985 -872.5954 -279.29959 1018625046
-161.6987 -873.33466 -304.29639 1018532704
-148.54674 -896.64148 -288.53873 1018523040
-114.37068 -907.98309 -282.61353 1018618603
-89.086655 -877.06714 -306.61639 1018656184
0.91351849 -880.68652 -306.99271 1018582633
-19.860039 -901.24713 -333.33032 1018624509
16.112812 -921.61438 -324.73486 1018594981
37.986649 -903.81702 -286.30161 1018574043
80.413116 -889.40015 -303.45441 1018552568
95.515228 -894.79688 -337.21924 1018633099
128.93733 -869.95917 -325.67639 1018630414
146.57669 -857.03345 -318.33224 1018556863
209.34793 -922.24829 -250.59413 1018593907
234.66254 -840.97266 -285.767 1018549884
274.8515 -858.6571 -302.54993 1018615382
333.07016 -823.99939 -312.94534 1018536999
-824.33759 209.27913 -331.74448 1021886536
-819.61273 180.71284 -315.35242 1021848419
-789.07172 173.88991 -279.798 1021803858
-822.534 92.633408 -314.4682 1021870967
-833.38513 73.229134 -337.19699 1021772720
-648.79468 39.091751 -215.82744 1032678179
-612.27063 7.0261483 -235.02582 1032759649
-626.55994 -8.9172611 -231.20926 1032763138
-637.85785 -34.640987 -232.68732 1032654556
-617.97247 -45.867035 -248.18784 1032648516
-656.04529 -47.676208 -230.29086 1032568388
-642.94745 -103.54927 -214.58208 1032476181
-656.5011 -124.73813 -222.57809 1032343440
-614.70923 -137.78 -251.91238 1032119564
-627.97632 -177.32664 -235.04056 1031983602
-638.25861 -206.54578 -232.5636 1031638260
-631.24377 -214.35152 -244.66011 1031036696
-613.53735 -220.7618 -223.35934 1030589482
-632.44727 -256.92752 -245.2328 1029822831
-644.59131 -271.74179 -200.5748 1029205697
-779.60303 -361.63989 -280.84555 1021787752
-721.4231 -396.85657 -305.26736 1021896200
-678.04468 -438.39307 -317.93793 1021744802
-661.96295 -475.06262 -309.29254 1021736212
-705.65765 -455.1543 -296.44696 1021818354
-673.85651 -485.45715 -314.60562 1021806543
-664.9917 -529.18317 -339.76913 1021749097
-614.26819 -570.01654 -290.04309 1021866672
-586.04822 -586.12897 -327.48782 1021753929
-594.00055 -605.34393 -317.52722 1021964383
-540.04846 -614.14325 -257.65677 1021814059
-526.77246 -670.13312 -330.17813 1021818891
-474.19073 -646.28619 -315.05981 1021841976
-467.64682 -643.42609 -312.01001 1021773257
-439.05844 -692.17358 -291.1886 1021937539
-434.39996 -696.43005 -289.71384 1021869356
-376.95886 -712.07391 -321.47104 1021787215
-394.13962 -746.65289 -260.5752 1021851640
-340.60452 -762.02136 -326.22012 1021921970
-367.3446 -764.5202 -298.86349 1021845197
-337.54431 -803.05188 -287.18301 1021835534
-283.51361 -786.21936 -285.84058 1021897274
-264.00406 -789.01422 -299.55933 1021820501
-224.66982 -794.78931 -297.27814 1021763593
-231.68967 -833.73822 -281.91678 1021804932
-186.63234 -820.76715 -265.2312 1021866672
-157.57712 -826.76593 -299.03851 1021905327
-119.39407 -851.63245 -286.86948 1021882241
-81.40255 -836.75964 -299.47345 1021896737
-37.33569 -827.26904 -271.01202 1021921970
1.2917453 -843.78613 -295.14221 1021827481
39.5914 -832.34991 -303.17529 1021870430
16.360968 -801.1955 -325.08084 1021863988
