# .PCD v.7 - Point Cloud Data file format
VERSION .7
FIELDS x y z rgb
SIZE 4 4 4 4
TYPE F F F F
COUNT 1 1 1 1
WIDTH 1080
HEIGHT 1
VIEWPOINT 0 0 0 1 0 0 0
POINTS 1080
DATA ascii
-449.726257 -312.617462 -299.981049 0.082257
-439.369354 -329.458649 -300.782501 0.08171
-425.352692 -343.512756 -299.451813 0.08262
-413.457794 -359.213287 -299.980194 0.082257
-400.470398 -374.022675 -300.124176 0.082159
-386.477509 -387.885803 -299.899567 0.082313
-371.663544 -400.857025 -299.398956 0.082656
-358.186798 -415.317596 -300.382477 0.081982
-343.385956 -428.372742 -300.69693 0.081768
-327.903503 -440.624084 -300.823517 0.081682
-310.417725 -450.044495 -299.438568 0.082629
-295.035248 -462.472473 -300.452332 0.081935
-277.383728 -471.357361 -299.549103 0.082553
-260.470917 -481.411194 -299.790344 0.082388
-243.861755 -492.206909 -300.856232 0.08166
-225.788452 -500.160339 -300.559143 0.081862
-206.948944 -506.204865 -299.524689 0.08257
-189.204102 -514.908142 -300.453217 0.081934
-170.543564 -521.285828 -300.401001 0.08197
-151.504242 -526.415527 -300.022919 0.082228
-132.196701 -530.367615 -299.371765 0.082675
-113.561714 -537.214233 -300.736267 0.081741
-94.005638 -539.959167 -300.185608 0.082117
-74.429298 -542.219482 -299.760468 0.082408
-54.829041 -543.932922 -299.423706 0.08264
-35.341431 -547.095764 -300.270691 0.082059
-15.612597 -546.605774 -299.499786 0.082587
4.055986 -548.19928 -300.25882 0.082067
23.749054 -547.475281 -300.136139 0.082151
43.396938 -546.069214 -300.026764 0.082225
63.078201 -544.846375 -300.407318 0.081965
82.630783 -542.282532 -300.438232 0.081944
101.93721 -538.258301 -300.045868 0.082212
-498.852264 -145.537811 -300.019073 0.090704
-493.218292 -163.348862 -299.970612 0.090739
-487.857025 -181.280701 -300.481262 0.090369
-479.980072 -198.267242 -299.828186 0.090843
-473.249084 -215.714737 -300.276245 0.090518
-464.07486 -232.029617 -299.556793 0.09104
-457.418213 -249.643814 -300.861511 0.090095
-447.667175 -265.639282 -300.538208 0.090328
-436.730377 -280.852966 -299.784088 0.090875
-426.486816 -296.46286 -299.878448 0.090806
-414.493683 -310.806 -299.112762 0.091364
-404.524323 -326.692108 -300.204132 0.09057
-392.745026 -341.217621 -300.376373 0.090445
-380.175415 -355.067932 -300.336456 0.090474
-366.624634 -367.960236 -299.893463 0.090795
-353.986145 -381.791107 -300.594025 0.090288
-338.416199 -392.393616 -299.16449 0.091326
-325.00708 -405.445038 -300.008545 0.090712
-310.610809 -417.387268 -300.383881 0.09044
-295.306824 -428.137543 -300.281952 0.090514
-279.2565 -437.739807 -299.777924 0.090879
-263.15155 -447.172638 -299.56192 0.091036
-247.256882 -456.988739 -299.98584 0.090728
-230.782455 -465.807983 -300.131744 0.090622
-214.304092 -474.720398 -300.713104 0.090202
-196.471024 -480.576019 -299.752045 0.090898
-179.419785 -488.280884 -300.338135 0.090473
-161.279343 -492.969818 -299.460632 0.09111
-143.656891 -499.14917 -299.881592 0.090804
-125.857399 -504.935577 -300.444031 0.090396
-107.551216 -508.782776 -300.23703 0.090546
-89.201729 -512.367188 -300.264862 0.090526
-70.602676 -514.340698 -299.73938 0.090907
-51.9366 -515.235596 -298.978699 0.091462
-33.515617 -518.833252 -300.172699 0.090593
-14.856637 -520.153748 -300.433411 0.090404
3.851196 -520.475342 -300.504791 0.090352
22.557364 -519.999084 -300.503998 0.090353
41.165356 -517.986206 -300.002289 0.090716
59.720856 -515.844177 -299.812012 0.090854
78.113968 -512.637756 -299.387878 0.091163
96.641708 -510.296265 -299.856415 0.090822
894.236572 -810.135132 212.762283 0.007439
642.107727 -540.968689 148.046509 0.033033
990.317688 -775.183655 221.754395 0.006047
983.148132 -714.070801 214.255386 0.007188
1004.024902 -675.441772 213.369171 0.007336
1007.06488 -626.082397 209.09108 0.008096
982.9599 -563.118835 199.748962 0.010039
1006.80658 -529.623779 200.591522 0.009846
1007.470398 -484.539368 197.121674 0.010666
990.521606 -433.238556 190.631119 0.012386
999.628052 -395.025696 189.524826 0.012705
1007.085999 -356.654266 188.383087 0.013044
1006.67804 -316.24826 186.057388 0.013762
988.873779 -271.989136 180.840271 0.015519
990.696106 -234.512787 179.513779 0.016001
990.658813 -197.16922 178.105835 0.016528
892.641968 -144.498749 159.445602 0.025404
891.108887 -867.664307 190.534225 0.006519
935.316223 -847.350464 193.341888 0.006053
642.530273 -541.324646 128.708862 0.033378
990.660522 -775.452087 192.728851 0.006152
983.453369 -714.292236 186.204742 0.007309
1007.17218 -677.559143 185.958145 0.007357
1006.843201 -625.94458 181.620392 0.00825
983.639771 -563.508545 173.663788 0.01018
1006.237 -529.324158 174.177124 0.010042
1007.649475 -484.625549 171.291412 0.010838
988.567871 -432.384338 165.29538 0.012698
1000.861755 -395.513214 164.86409 0.012843
1006.198608 -356.339996 163.524719 0.013306
1008.157166 -316.712799 161.885666 0.013895
988.700928 -271.941589 157.08815 0.015772
989.924377 -234.330109 155.841675 0.0163
990.758301 -197.189011 154.755508 0.016774
990.279846 -160.304245 153.680054 0.017258
892.504333 -869.02301 162.214752 0.006572
967.227234 -876.26062 169.95491 0.005171
642.084595 -540.949158 109.331345 0.033821
990.047302 -774.971802 163.725052 0.006272
984.028137 -714.709961 158.373398 0.007403
1007.91864 -678.061218 158.188354 0.007446
1005.317078 -624.99585 154.149826 0.008438
984.296326 -563.884827 147.719025 0.010298
1005.91925 -529.15686 148.010101 0.010206
1004.907471 -483.306732 145.207825 0.011131
991.255737 -433.559784 140.889114 0.012724
1001.947266 -395.9422 140.292465 0.012962
1006.925354 -356.597504 139.102463 0.013448
1004.803345 -315.659241 137.151123 0.014286
990.908875 -272.548889 133.828888 0.015835
989.910645 -234.32692 132.469269 0.016516
990.474792 -197.132584 131.510162 0.017014
988.871521 -160.076279 130.447861 0.017583
892.858337 -934.242065 138.7677 0.005523
935.564331 -910.948792 140.218842 0.005231
980.713684 -888.478882 142.100967 0.004874
641.500732 -540.457336 90.074051 0.034233
989.774109 -774.758362 134.972626 0.006367
983.908447 -714.622925 130.581039 0.007505
1005.5224 -676.449402 130.134033 0.007632
1007.560547 -626.390503 127.397606 0.008456
983.379089 -563.359192 121.696739 0.010469
1006.383667 -529.401184 122.107399 0.01031
1007.620361 -484.61142 120.063408 0.01113
990.191406 -433.094238 116.054222 0.012934
1001.444641 -395.743561 115.628883 0.013142
1006.476868 -356.43866 114.654579 0.01363
1006.511536 -316.195831 113.288765 0.014346
989.814392 -272.247833 110.235146 0.016085
990.564819 -234.481705 109.30809 0.016653
991.206177 -197.278152 108.52504 0.017149
989.574158 -160.190002 107.645401 0.017723
893.778076 -935.204407 109.508102 0.005555
965.931885 -940.517212 114.127373 0.004463
991.18811 -897.968323 113.21965 0.004659
641.646057 -540.579773 71.024574 0.034457
989.264282 -774.358887 106.348732 0.006453
984.233154 -714.858765 102.975647 0.007573
1006.851379 -677.343445 102.724899 0.007663
1005.894531 -625.354858 100.266098 0.008611
982.942932 -563.109192 95.895287 0.010594
1005.805847 -529.097351 96.206161 0.010439
1006.972595 -484.299988 94.589447 0.011271
989.491516 -432.788269 91.42495 0.013096
1001.601562 -395.805634 91.168602 0.013256
1006.096863 -356.304077 90.351997 0.01378
1002.255371 -314.858612 88.931717 0.01474
989.612366 -272.192291 86.884377 0.016242
990.448669 -234.454224 86.161232 0.016809
990.019226 -197.041916 85.451614 0.017384
991.207153 -160.454224 85.000641 0.01776
892.539856 -1003.833496 83.296432 0.004593
903.248657 -945.113403 81.067589 0.005304
980.132507 -954.34375 84.830528 0.004159
991.611938 -898.351746 82.971764 0.00469
642.549255 -541.340759 52.100624 0.034486
991.112244 -775.805542 78.048676 0.006446
978.954651 -711.025146 75.027504 0.007836
956.238159 -643.294067 71.465828 0.009865
980.628723 -609.647461 71.602486 0.009778
983.585327 -563.477478 70.291595 0.010642
889.372314 -467.848297 62.31424 0.017821
1007.087463 -484.355255 69.297081 0.011349
988.348389 -432.288147 66.893745 0.013256
979.667664 -387.137939 65.320778 0.014675
979.309021 -346.817383 64.422935 0.015551
979.038086 -307.564941 63.635681 0.016363
988.973999 -272.016571 63.603992 0.016397
990.894897 -234.559845 63.143688 0.016892
989.717224 -196.981812 62.576359 0.017522
990.152771 -160.283676 62.198971 0.017955
893.50116 -1004.917175 53.022068 0.004594
966.388611 -1011.180054 55.152527 0.003701
969.4422 -943.935425 53.353386 0.004443
990.390015 -897.245239 52.694866 0.00475
641.627869 -540.564514 33.082199 0.034786
990.09906 -775.012451 49.578682 0.006517
990.504395 -719.41394 48.271217 0.007442
990.873901 -666.594788 47.089546 0.008391
989.609009 -615.23053 45.947395 0.009422
984.929077 -564.247192 44.757778 0.010631
888.67395 -467.480896 39.593842 0.017959
1006.034912 -483.84903 44.018459 0.011461
990.37439 -433.174255 42.623383 0.013204
991.384216 -391.768036 42.032784 0.01402
990.70813 -350.854309 41.441925 0.014887
991.512878 -311.484009 40.980167 0.015602
991.150635 -272.615387 40.533382 0.016325
990.609558 -234.492355 40.140156 0.01699
990.534851 -197.144592 39.823799 0.017545
990.208191 -160.292511 39.553101 0.018034
891.11908 -1077.942627 23.62594 0.003716
901.258301 -1013.640625 22.911386 0.0044
979.642944 -1025.048218 23.951284 0.00344
990.822144 -964.753052 23.360006 0.003956
990.348267 -897.207092 22.572895 0.004767
640.673157 -539.760071 14.150988 0.035034
989.588318 -774.612488 21.227936 0.006555
990.154663 -719.159729 20.671457 0.007478
885.518127 -595.718445 18.026814 0.013987
989.757019 -615.322388 19.686211 0.009444
983.87677 -563.644226 19.153057 0.010714
1005.848083 -529.11969 19.198017 0.010601
1006.303711 -483.97818 18.862162 0.01148
990.584045 -433.26593 18.263197 0.013228
990.469666 -391.406616 17.989687 0.014114
985.243103 -348.918793 17.655495 0.015277
989.324158 -310.796387 17.516636 0.015787
988.877319 -271.990112 17.324175 0.016523
989.565613 -234.245239 17.177414 0.017108
989.101807 -196.859329 17.035347 0.017693
990.557434 -160.349182 16.950047 0.018054
945.753479 -1063.684326 -8.013684 0.003368
1015.831421 -1062.914673 -8.277976 0.002791
989.976196 -963.929199 -7.779523 0.003978
989.72583 -896.643372 -7.519112 0.004786
640.661987 -539.750671 -4.716441 0.035051
990.934692 -775.666748 -7.085147 0.006514
990.740967 -719.585632 -6.894128 0.007461
901.349792 -606.368774 -6.116279 0.012966
991.412292 -616.351685 -6.572657 0.009376
981.305481 -562.171143 -6.367749 0.010848
889.216736 -467.76651 -5.657009 0.01797
1000.73584 -481.300446 -6.252117 0.011773
989.631714 -432.849579 -6.081534 0.013291
988.461487 -390.612915 -5.984069 0.014244
990.149963 -350.656525 -5.914058 0.01497
990.657593 -311.215302 -5.846402 0.015707
991.094604 -272.599854 -5.787337 0.01638
988.741089 -234.050064 -5.720688 0.017175
990.295898 -197.097046 -5.684969 0.017616
990.794434 -160.387421 -5.651031 0.018046
990.525818 -964.464172 -38.928429 0.003957
991.707947 -898.439148 -37.679714 0.004726
641.777649 -540.690613 -23.629129 0.034803
985.441467 -771.368408 -35.237808 0.006686
989.822021 -718.918091 -34.446938 0.007481
914.87677 -615.468933 -31.047745 0.012127
899.381531 -559.137085 -29.819637 0.01444
898.171814 -514.545471 -29.146696 0.015889
898.492065 -472.645721 -28.586576 0.017206
903.982422 -434.767151 -28.245047 0.018061
913.782532 -399.674225 -28.083605 0.01848
932.158508 -368.363434 -28.222675 0.018119
990.472168 -350.770752 -29.586811 0.014926
991.551575 -311.496155 -29.265238 0.015624
990.945679 -272.55899 -28.939085 0.016365
990.46582 -234.458267 -28.660084 0.017027
988.438416 -196.72728 -28.378168 0.017723
989.150452 -160.121414 -28.21489 0.018139
989.431885 -963.399109 -70.035614 0.003962
990.074646 -896.959534 -67.752235 0.004745
640.729736 -539.807617 -42.485966 0.03489
1000.581116 -783.217468 -64.440918 0.006163
1000.228638 -726.476868 -62.693756 0.007075
989.800964 -665.872986 -60.498829 0.008414
990.111755 -615.542786 -59.125439 0.009378
990.284729 -567.315247 -57.87899 0.010348
989.493713 -520.516418 -56.701134 0.011357
990.331848 -476.296783 -55.73077 0.012261
989.298889 -432.70401 -54.760754 0.013237
989.991394 -391.217621 -53.984726 0.014074
990.452881 -350.763916 -53.286995 0.014871
983.562805 -308.98645 -52.284157 0.016097
983.268616 -270.447418 -51.717613 0.016834
983.217407 -232.742523 -51.241146 0.017479
984.813599 -196.005997 -50.923759 0.017923
985.109558 -159.467209 -50.609585 0.018373
990.029053 -963.980652 -101.317711 0.003918
989.908752 -896.809021 -97.938988 0.004714
640.635864 -539.728455 -61.416824 0.034744
1007.52533 -788.653259 -93.81459 0.005907
1006.383667 -730.94696 -91.199654 0.006815
989.86084 -665.91333 -87.473862 0.008355
989.891418 -615.406067 -85.46386 0.009327
983.758606 -563.57666 -83.129356 0.010597
984.332825 -517.801758 -81.55027 0.011553
983.588684 -473.053589 -80.026245 0.012557
986.544556 -431.499146 -78.952042 0.013317
990.677917 -391.488922 -78.104683 0.013949
989.124756 -350.293579 -76.938469 0.014868
1000.371338 -314.266846 -76.883652 0.014913
1004.77063 -276.36145 -76.40786 0.015306
1007.033081 -238.380127 -75.878387 0.015756
1007.77002 -200.574829 -75.341171 0.016225
984.800842 -159.417297 -73.147812 0.018294
989.059021 -963.03595 -132.531387 0.003898
990.06842 -896.953796 -128.25798 0.004662
640.617554 -539.713196 -80.416222 0.034525
1007.93103 -788.970703 -122.886444 0.005837
1007.753235 -731.941833 -119.575691 0.006705
989.615417 -665.74823 -114.506287 0.008289
990.821045 -615.983765 -112.007988 0.009203
983.417236 -563.380798 -108.808372 0.010522
1002.343262 -527.275757 -108.732193 0.010556
1003.898071 -482.821259 -106.946693 0.011375
984.983887 -430.816559 -103.213081 0.013299
990.447388 -391.397827 -102.243263 0.01385
989.928833 -350.578278 -100.821991 0.014699
1001.545044 -314.63562 -100.786514 0.01472
1007.302002 -277.057678 -100.297409 0.015025
1006.896362 -238.347702 -99.338593 0.01564
1006.090881 -200.240616 -98.484283 0.016209
984.204285 -159.320724 -95.718567 0.018199
990.992737 -964.918701 -164.300095 0.003805
990.306519 -897.169617 -158.730179 0.004596
639.900085 -539.108765 -99.39444 0.034375
1006.213684 -787.626221 -151.78688 0.005816
1007.114685 -731.478027 -147.855804 0.006645
991.345886 -666.91217 -141.924988 0.008125
990.860474 -616.008545 -138.591766 0.009098
982.528137 -562.871704 -134.505707 0.01045
1001.604736 -526.887146 -134.434082 0.010475
1002.680664 -482.23587 -132.163391 0.011313
987.096558 -431.740601 -127.978256 0.013039
989.589417 -391.058594 -126.394829 0.013758
992.151855 -351.365601 -125.025993 0.014412
1000.249512 -314.228577 -124.540634 0.014651
1005.828369 -276.652496 -123.915268 0.014965
1006.60968 -238.279846 -122.875435 0.015502
1007.563721 -200.533585 -122.031822 0.015952
984.240479 -159.326523 -118.435776 0.01802
990.312744 -964.256531 -195.844666 0.003757
990.304871 -897.167847 -189.335083 0.004524
640.115723 -539.290283 -118.592728 0.033997
1006.326172 -787.714478 -181.073624 0.005725
1007.075256 -731.44928 -176.357376 0.006549
990.610657 -666.417297 -169.164368 0.00804
990.728394 -615.926147 -165.291855 0.008978
984.267883 -563.868225 -160.72406 0.010227
1001.669556 -526.92157 -160.365097 0.010333
1003.357178 -482.561127 -157.752533 0.011132
985.80481 -431.175598 -152.454315 0.012947
990.749817 -391.517151 -150.942108 0.013517
990.645142 -350.83194 -148.906067 0.014325
999.566223 -314.013916 -148.452179 0.014512
1006.696655 -276.891144 -147.935272 0.014727
1007.58905 -238.511673 -146.709991 0.015251
1006.290894 -200.280426 -145.377274 0.015842
983.130432 -159.146835 -141.112244 0.01789
990.350037 -964.292969 -227.713181 0.003685
990.317505 -897.179504 -220.138748 0.00444
640.319763 -539.462158 -137.928772 0.033566
978.413391 -765.86554 -204.690887 0.006493
982.404419 -713.530457 -200.023788 0.007283
989.558899 -665.709839 -196.475052 0.007948
990.066833 -615.514893 -192.053101 0.008861
984.049255 -563.743042 -186.829208 0.010077
1004.530762 -528.426697 -186.985718 0.010038
1001.34967 -481.595673 -183.048599 0.011059
988.463074 -432.338287 -177.733353 0.012605
989.450378 -391.003662 -175.267044 0.013394
989.299072 -350.355255 -172.894745 0.014199
999.997192 -314.149323 -172.67662 0.014275
1006.128357 -276.734833 -171.904114 0.014549
1006.346252 -238.217545 -170.366211 0.01511
1007.08728 -200.438934 -169.160858 0.015565
984.298035 -159.335831 -164.263245 0.017559
989.973938 -963.926819 -259.712982 0.003611
990.374756 -897.231201 -251.184021 0.004344
640.152893 -539.321777 -157.334717 0.033145
988.946655 -774.110535 -236.058456 0.006027
989.723816 -718.846863 -229.919617 0.006884
991.318726 -666.893921 -224.568909 0.007729
991.013611 -616.103882 -219.334549 0.008657
983.262695 -563.292236 -212.994125 0.009931
999.899841 -525.990417 -212.35968 0.010068
1002.103149 -481.958008 -209.008286 0.010826
987.233582 -431.800507 -202.535889 0.012455
988.739563 -390.722961 -199.829071 0.013207
989.133057 -350.296387 -197.232849 0.01397
997.959167 -313.509064 -196.615555 0.014158
1001.760132 -275.532928 -195.284256 0.014572
1001.615417 -237.097519 -193.467194 0.015157
1002.191833 -199.46431 -192.067596 0.015624
984.774048 -159.412888 -187.508575 0.017245
313.995728 -1383.862305 -299.956024 0.003023
363.697235 -1372.164062 -300.063416 0.003017
412.781342 -1358.083496 -300.038757 0.003018
460.914093 -1341.057007 -299.748047 0.003035
509.232269 -1324.605957 -299.973145 0.003022
555.378296 -1302.693848 -299.343842 0.003059
602.966492 -1284.20166 -299.887054 0.003027
649.554443 -1263.217407 -300.251678 0.003006
694.740784 -1239.342407 -300.325714 0.003001
738.19458 -1212.446167 -300.052002 0.003017
781.160461 -1184.860107 -299.988586 0.003021
823.190918 -1155.883179 -299.959076 0.003023
864.466064 -1125.831543 -300.040161 0.003018
905.266235 -1095.057129 -300.327423 0.003001
942.71991 -1060.272705 -299.898773 0.003026
981.751038 -1027.254395 -300.359375 0.002999
980.460205 -954.663147 -289.265045 0.003717
979.984558 -887.81781 -279.516724 0.004488
641.01593 -540.048767 -177.173401 0.03249
990.442688 -775.281555 -265.871735 0.005844
990.569885 -719.461426 -258.787537 0.006702
990.450012 -666.309387 -252.327774 0.007594
989.902344 -615.412903 -246.38591 0.008519
984.027039 -563.730164 -239.718109 0.009692
1002.723267 -527.475464 -239.493057 0.009734
1003.424988 -482.594116 -235.359756 0.010544
986.842346 -431.629517 -227.675827 0.012233
988.603394 -390.668945 -224.695816 0.012959
989.57312 -350.452362 -221.905807 0.013678
979.096863 -307.583496 -216.933685 0.015059
979.210327 -269.331177 -214.672104 0.015732
979.413879 -231.842239 -212.749664 0.016328
977.595032 -194.569183 -210.696991 0.016989
982.79303 -159.092209 -210.446915 0.017072
282.700104 -1245.931885 -300.265717 0.005249
326.797882 -1232.948242 -299.777191 0.005294
371.520386 -1222.328735 -300.251862 0.005251
414.778381 -1206.821655 -299.915497 0.005282
458.095032 -1191.587402 -300.032501 0.005271
500.370392 -1173.667725 -299.860748 0.005287
542.333252 -1155.064941 -299.900787 0.005283
584.205322 -1136.129517 -300.249207 0.005251
623.813232 -1112.815552 -299.827148 0.00529
664.444031 -1091.315552 -300.283203 0.005248
703.391418 -1066.899048 -300.336304 0.005243
740.203125 -1039.355591 -299.887909 0.005284
777.341614 -1012.365356 -299.978455 0.005276
813.78717 -984.399597 -300.176178 0.005258
848.148315 -953.908447 -299.992523 0.005274
883.057007 -923.986267 -300.382904 0.005239
914.153442 -890.100586 -299.869019 0.005286
944.703247 -855.854492 -299.592163 0.005312
639.56012 -538.82251 -196.543488 0.032185
979.850525 -766.990295 -292.448486 0.006018
979.726196 -711.585449 -284.583435 0.006905
980.812744 -659.826233 -277.821045 0.007772
979.608398 -609.013184 -271.095673 0.008742
981.575134 -562.325745 -265.867004 0.009578
1003.022217 -527.632874 -266.359924 0.009496
1002.777222 -482.282257 -261.516113 0.010335
987.052979 -431.721527 -253.19664 0.011953
990.366089 -391.36557 -250.273773 0.01258
989.348877 -350.372864 -246.670303 0.013398
991.060913 -311.34201 -244.145279 0.014003
989.460571 -272.150391 -241.181915 0.014748
990.341492 -234.428894 -239.185196 0.015272
991.597778 -197.356155 -237.619308 0.015696
990.26416 -160.301712 -235.76442 0.016213
256.421021 -1130.115112 -300.044403 0.008327
297.146118 -1121.078857 -300.290253 0.008295
336.663391 -1107.646729 -299.743988 0.008367
376.783844 -1096.273315 -300.141693 0.008314
416.106567 -1082.366333 -300.240021 0.008301
454.611511 -1066.334351 -300.136963 0.008315
492.362854 -1048.637085 -299.94931 0.00834
529.036926 -1028.839966 -299.539154 0.008395
565.900696 -1009.504333 -299.645416 0.00838
603.931519 -991.925659 -300.684753 0.008243
638.164612 -967.96344 -300.189301 0.008308
672.748779 -944.639587 -300.270569 0.008297
706.160156 -919.662781 -300.215271 0.008305
737.932556 -892.641785 -299.870392 0.00835
769.617798 -865.585144 -299.892365 0.008348
799.562988 -836.621826 -299.63385 0.008382
831.485474 -809.608154 -300.482208 0.008269
857.744812 -777.074951 -299.671082 0.008377
640.60199 -539.700256 -216.882874 0.031396
911.921631 -713.817993 -299.846252 0.008354
937.775635 -681.116333 -300.092499 0.008321
961.053589 -646.533325 -299.901306 0.008346
979.88092 -609.182495 -298.74118 0.008502
980.582153 -561.756775 -292.601349 0.009378
1025.217773 -539.30835 -299.934296 0.008342
1002.096619 -481.955109 -287.909027 0.010107
981.833923 -429.438812 -277.467133 0.011939
981.45752 -387.845184 -273.239105 0.012773
979.82251 -346.999146 -269.13269 0.013638
981.962646 -308.483765 -266.49823 0.014223
990.040039 -272.309784 -265.858612 0.014369
989.701965 -234.277466 -263.333069 0.01496
991.036438 -197.24437 -261.629883 0.015372
990.093811 -160.274124 -259.690063 0.015856
234.557617 -1033.753906 -300.087158 0.012195
271.470184 -1024.207764 -299.957886 0.012218
308.275177 -1014.247375 -300.096039 0.012193
345.211761 -1004.413635 -300.667999 0.012091
380.69342 -990.250916 -300.335175 0.01215
415.369995 -974.290955 -299.834625 0.01224
450.447662 -959.36554 -300.036377 0.012204
484.752319 -942.718201 -300.092102 0.012194
518.11731 -924.266052 -299.95993 0.012217
551.404968 -905.652893 -300.16568 0.012181
582.737976 -883.892639 -299.711182 0.012262
615.064209 -863.641846 -300.155945 0.012182
645.826355 -841.088257 -300.201294 0.012174
675.578003 -817.214355 -300.16452 0.012181
703.56366 -791.295349 -299.750946 0.012255
731.554749 -765.461853 -299.745148 0.012256
760.075989 -740.078308 -300.322815 0.012153
785.084717 -711.248474 -299.895721 0.012229
639.898071 -539.10675 -236.871597 0.030856
834.540955 -653.247925 -300.024017 0.012206
857.995911 -623.171753 -300.198792 0.012175
878.889709 -591.258606 -299.869415 0.012234
900.835083 -560.04071 -300.285217 0.012159
919.761963 -526.914307 -300.078613 0.012196
937.076782 -492.94278 -299.7453 0.012256
955.116577 -459.360352 -300.033173 0.012204
970.720276 -424.578156 -299.940338 0.012221
980.678894 -387.537567 -298.514404 0.01248
979.220764 -346.786041 -294.080902 0.013319
980.144653 -307.912659 -290.841644 0.013968
979.494507 -269.409271 -287.585663 0.014652
979.740601 -231.919586 -285.022583 0.015214
979.929749 -195.033905 -282.852356 0.015707
980.978577 -158.798386 -281.323364 0.016064
215.811279 -951.136963 -299.985413 0.01688
249.985184 -943.150635 -300.109711 0.016851
283.286591 -932.036438 -299.623474 0.016963
316.725128 -921.530273 -299.716766 0.016942
349.798553 -909.890015 -299.831085 0.016915
382.541107 -897.287903 -300.021149 0.016872
414.162567 -882.087097 -299.728577 0.016939
445.995239 -867.345825 -299.979736 0.016881
476.287384 -849.645325 -299.592621 0.016971
507.398682 -833.376099 -300.100952 0.016854
536.931641 -814.414062 -300.037384 0.016868
565.600769 -794.18811 -299.891235 0.016902
595.271179 -775.247681 -300.63446 0.016732
621.412048 -751.692383 -299.97876 0.016882
648.145325 -728.966797 -300.024658 0.016871
673.024414 -704.217896 -299.614502 0.016965
698.622375 -680.240967 -299.916718 0.016896
723.049744 -655.047852 -300.088226 0.016856
640.133728 -539.305603 -257.45694 0.030109
768.907104 -601.871948 -300.337158 0.016799
789.624878 -573.513062 -300.17276 0.016837
809.665771 -544.689453 -300.14444 0.016844
828.569458 -515.113892 -300.085297 0.016857
846.288452 -484.822632 -299.988708 0.016879
864.163269 -454.587372 -300.330811 0.016801
877.770081 -422.160583 -299.585236 0.016972
894.750732 -391.350189 -300.379059 0.01679
906.821533 -358.350677 -299.907227 0.016898
920.161987 -325.871216 -300.246033 0.01682
929.820984 -292.10379 -299.773224 0.016929
939.943604 -258.530426 -299.842773 0.016913
948.960083 -224.633286 -299.945862 0.016889
956.947266 -190.459991 -300.109497 0.016852
964.899902 -156.196091 -300.645752 0.016729
199.618546 -879.770325 -299.874023 0.022311
231.678955 -874.083496 -300.58313 0.022111
261.933044 -861.781128 -299.400513 0.022446
294.291077 -856.25708 -300.966309 0.022004
323.854828 -842.403809 -299.999847 0.022276
353.183838 -828.426208 -299.355011 0.022458
383.088806 -815.904236 -299.618439 0.022384
412.843292 -802.873413 -300.095306 0.022249
441.303284 -787.236816 -299.993073 0.022277
469.609314 -771.309021 -300.169891 0.022228
498.055176 -755.446838 -300.77832 0.022057
523.460571 -735.016602 -299.950836 0.022289
550.861877 -717.411499 -300.662292 0.022089
575.342041 -695.963013 -300.15741 0.022231
599.03064 -673.726746 -299.671661 0.022368
623.32843 -652.219421 -299.88974 0.022307
647.173218 -630.145325 -300.255585 0.022203
669.350525 -606.398804 -300.225006 0.022212
639.127747 -538.458069 -277.796692 0.029519
711.279968 -556.763672 -300.253601 0.022204
730.034973 -530.23175 -299.920685 0.022298
748.839844 -503.769867 -300.003235 0.022275
766.273926 -476.384979 -299.92453 0.022297
783.636841 -448.930725 -300.202148 0.022219
800.921387 -421.318817 -300.819702 0.022045
814.413208 -391.68866 -300.397705 0.022163
827.092712 -361.757385 -300.077911 0.022254
840.686462 -332.216309 -300.477295 0.022141
850.211548 -301.097931 -299.814423 0.022328
860.983337 -270.477936 -299.985779 0.02228
869.064331 -239.035583 -299.609924 0.022386
878.703064 -208.002335 -300.157593 0.022231
886.033142 -176.345627 -300.299011 0.022191
890.899719 -144.216583 -299.994995 0.022277
186.094772 -820.169495 -300.753693 0.02808
215.0289 -811.265686 -300.132324 0.028288
243.822083 -802.192383 -299.828064 0.02839
272.775574 -793.656006 -300.112488 0.028295
300.825958 -782.501465 -299.794434 0.028402
328.768921 -771.158752 -299.788177 0.028404
356.439087 -759.145386 -299.91095 0.028362
383.955231 -746.69458 -300.256897 0.028246
409.940277 -731.288879 -299.800812 0.0284
435.726868 -715.658569 -299.628174 0.028458
462.88147 -702.095825 -300.730042 0.028088
485.92569 -682.312012 -299.553101 0.028483
511.000824 -665.498413 -300.051514 0.028315
534.461426 -646.513062 -299.970154 0.028343
557.127441 -626.599304 -299.839966 0.028386
579.861694 -606.737 -300.128082 0.028289
600.894592 -585.08429 -299.921051 0.028359
622.602844 -564.047363 -300.429199 0.028188
631.605896 -532.120972 -295.341034 0.029945
659.197876 -515.995789 -299.365173 0.028547
678.59967 -492.874207 -299.926239 0.028357
695.669617 -468.001007 -299.832153 0.028389
711.406982 -442.274628 -299.560211 0.028481
729.276733 -417.788727 -300.558594 0.028145
742.075317 -390.363953 -299.848907 0.028383
755.052917 -363.140106 -299.617615 0.028461
769.381897 -336.515808 -300.30307 0.028231
780.523682 -308.441498 -300.124573 0.028291
791.714172 -280.381683 -300.352905 0.028214
801.203369 -251.698334 -300.321869 0.028224
808.730286 -222.440491 -299.948151 0.02835
818.367249 -193.720398 -300.741638 0.028084
824.963013 -164.191177 -300.799164 0.028065
829.446716 -134.268845 -300.477478 0.028172
173.451218 -764.445374 -300.395416 0.03481
200.364227 -755.937988 -299.692139 0.035085
227.669724 -749.05127 -300.016144 0.034958
254.555695 -740.646912 -300.124969 0.034915
280.637238 -729.988098 -299.704895 0.03508
306.842957 -719.731079 -299.833649 0.035029
332.676849 -708.537903 -299.964417 0.034978
358.515381 -697.221252 -300.441711 0.034792
383.116028 -683.437744 -300.249542 0.034867
407.006561 -668.486938 -299.922607 0.034994
430.761353 -653.376404 -299.904724 0.035001
453.57782 -636.891235 -299.637085 0.035106
476.144196 -620.104553 -299.607574 0.035118
499.47525 -604.192078 -300.410522 0.034804
519.640076 -584.437012 -299.693146 0.035084
540.158691 -565.194946 -299.601227 0.03512
560.605408 -545.855652 -299.850952 0.035022
579.937744 -525.395386 -299.883209 0.03501
597.49646 -503.384033 -299.400238 0.035199
615.410767 -481.721069 -299.495575 0.035162
633.917297 -460.421783 -300.243317 0.034869
648.903381 -436.539581 -299.705475 0.035079
664.957703 -413.398071 -300.054169 0.034943
679.466675 -389.253845 -300.085236 0.034931
693.415527 -364.767059 -300.253204 0.034865
706.367554 -339.725128 -300.37265 0.034819
716.202881 -313.255676 -299.56662 0.035134
728.031799 -287.698669 -299.989166 0.034968
737.483337 -261.176392 -299.816345 0.035036
747.532898 -234.837936 -300.271332 0.034858
753.645874 -207.29007 -299.536133 0.035146
761.455383 -180.248322 -299.867462 0.035016
767.881348 -152.830368 -300.037598 0.034949
772.86145 -125.109436 -300.029999 0.034952
161.861099 -713.364929 -299.383636 0.042359
187.731125 -708.274536 -299.888733 0.042134
213.399384 -702.101685 -300.33255 0.041937
238.127945 -692.847168 -299.845703 0.042153
262.594391 -683.05365 -299.503693 0.042306
287.460999 -674.267761 -299.993439 0.042087
311.342926 -663.10083 -299.816528 0.042166
334.586517 -650.685059 -299.453827 0.042328
358.459229 -639.451843 -300.027161 0.042072
380.253937 -624.546509 -299.261261 0.042414
402.686279 -610.790527 -299.420746 0.042343
424.736969 -596.394348 -299.662842 0.042235
446.077423 -580.946716 -299.773773 0.042185
466.702667 -564.547241 -299.785156 0.04218
486.94693 -547.66687 -299.933624 0.042114
506.08252 -529.538879 -299.786835 0.042179
525.758972 -511.925385 -300.33371 0.041936
543.060059 -491.986267 -299.908051 0.042125
559.34906 -471.245148 -299.342773 0.042377
577.465759 -452.01889 -300.137665 0.042023
594.374329 -431.700409 -300.655914 0.041794
608.162964 -409.13205 -299.988007 0.04209
623.940918 -387.898529 -300.689697 0.041779
635.983215 -364.342468 -299.979187 0.042094
647.763184 -340.75116 -299.556946 0.042282
661.285278 -318.042572 -300.322144 0.041941
673.214966 -294.45343 -300.732513 0.04176
682.805542 -269.826324 -300.484161 0.04187
691.609375 -244.930054 -300.284485 0.041958
699.111572 -219.626114 -299.91568 0.042122
706.365234 -194.285095 -299.833557 0.042158
712.890991 -168.75206 -299.831329 0.042159
719.24176 -143.149628 -300.141235 0.042022
724.930115 -117.349792 -300.557922 0.041837
152.169769 -670.651672 -299.710693 0.049753
176.342194 -665.306946 -299.964111 0.049627
200.035126 -658.132019 -299.781158 0.049718
224.114792 -652.074463 -300.501587 0.049361
247.404663 -643.543396 -300.479034 0.049372
270.172241 -633.715576 -300.235901 0.049492
292.460205 -622.883301 -299.896606 0.049661
314.848724 -612.300903 -300.062927 0.049578
335.868073 -599.152222 -299.349518 0.049933
358.441711 -588.721863 -300.389404 0.049416
379.174805 -575.130188 -300.223083 0.049498
399.640198 -561.15448 -300.241608 0.049489
418.435333 -544.946228 -299.433258 0.049891
438.749969 -530.734375 -300.106873 0.049556
457.123779 -514.125122 -299.8237 0.049697
475.009186 -497.025543 -299.627716 0.049794
494.10675 -481.10611 -300.557098 0.049333
510.083527 -462.110291 -299.964539 0.049627
526.1922 -443.311218 -299.860779 0.049678
542.431458 -424.595306 -300.212036 0.049504
557.2052 -404.704041 -300.132904 0.049543
569.721985 -383.271362 -299.251007 0.049983
585.062012 -363.727325 -300.237915 0.049491
597.158203 -342.100067 -299.932556 0.049643
609.006836 -320.363525 -299.898285 0.04966
619.780762 -298.081299 -299.726898 0.049745
630.040894 -275.570038 -299.698334 0.049759
639.480896 -252.705551 -299.668427 0.049774
648.472412 -229.652817 -299.814331 0.049701
656.49884 -206.238617 -299.899323 0.049659
665.072388 -182.927719 -300.613739 0.049305
670.176758 -158.640808 -300.145844 0.049537
676.192505 -134.581284 -300.476105 0.049373
680.128601 -110.097763 -300.269958 0.049475
143.35257 -631.792053 -299.880554 0.057524
166.466034 -628.046448 -300.751556 0.057048
188.117218 -618.918335 -299.428802 0.057771
210.095901 -611.286194 -299.200958 0.057897
232.462646 -604.676453 -299.866791 0.057531
253.862747 -595.460632 -299.633392 0.057659
275.623962 -587.026001 -300.186584 0.057356
296.202148 -576.036316 -299.82431 0.057554
316.849335 -565.224426 -299.938263 0.057492
336.398895 -552.517273 -299.426086 0.057773
356.335327 -540.486694 -299.662354 0.057643
376.12146 -528.130249 -300.12265 0.057391
395.192291 -514.675964 -300.364899 0.057259
413.600586 -500.312958 -300.475677 0.057198
431.044067 -484.792664 -300.277496 0.057307
447.347504 -468.081604 -299.704987 0.05762
464.588013 -452.3638 -300.153229 0.057374
480.69635 -435.486633 -300.239899 0.057327
495.446594 -417.408203 -299.875488 0.057526
509.938263 -399.16037 -299.757324 0.057591
525.665283 -381.796722 -300.730072 0.05706
538.090027 -361.991486 -300.190247 0.057354
550.453308 -342.211365 -300.022034 0.057446
562.948914 -322.502594 -300.31189 0.057288
574.903259 -302.42392 -300.687714 0.057083
581.9953 -279.908752 -298.93457 0.058044
595.144714 -260.306641 -300.681458 0.057086
602.490906 -238.088226 -299.869812 0.057529
611.312439 -216.493454 -300.187958 0.057355
618.522705 -194.309097 -300.100342 0.057403
626.584473 -172.341995 -300.807526 0.057018
630.202515 -149.178925 -299.772919 0.057583
634.381714 -126.259834 -299.405151 0.057784
638.326172 -103.33075 -299.317902 0.057833
135.284912 -596.235535 -299.901489 0.065616
156.257065 -589.529114 -299.1633 0.066057
177.711426 -584.684387 -299.756226 0.065702
199.038132 -579.114807 -300.378845 0.065332
219.477783 -570.901855 -300.022034 0.065544
239.905563 -562.723816 -300.067535 0.065517
260.110687 -553.986877 -300.20636 0.065434
280.425751 -545.355896 -300.803955 0.06508
298.696106 -532.842163 -299.637085 0.065774
317.480927 -521.445923 -299.460419 0.065879
335.991974 -509.630707 -299.425842 0.0659
354.425812 -497.666809 -299.697174 0.065738
372.597382 -485.250427 -300.101044 0.065497
389.66745 -471.362213 -299.991333 0.065562
406.625824 -457.33078 -300.18103 0.065449
422.462219 -442.042908 -299.932617 0.065597
438.038086 -426.512848 -299.898041 0.065618
453.609253 -410.948608 -300.238739 0.065415
466.9841 -393.429138 -299.524872 0.065841
480.736725 -376.302795 -299.465057 0.065877
494.611816 -359.241913 -299.860138 0.065641
507.786072 -341.605133 -300.199127 0.065439
519.332642 -322.864502 -299.961273 0.06558
530.944092 -304.168701 -300.150696 0.065468
541.270325 -284.73175 -300.00058 0.065557
552.007263 -265.486389 -300.46109 0.065283
561.128479 -245.428757 -300.423126 0.065306
568.553223 -224.677383 -299.874969 0.065632
576.173706 -204.049347 -299.826752 0.06566
583.841492 -183.414413 -300.187378 0.065446
589.934448 -162.261169 -300.123138 0.065484
595.572693 -140.981598 -300.21582 0.065429
600.185181 -119.454292 -300.179321 0.065451
603.329468 -97.665749 -299.799652 0.065677
127.922729 -563.788391 -299.916138 0.073893
148.199707 -559.13208 -300.082062 0.073786
168.447144 -554.204529 -300.496704 0.073521
187.899979 -546.706299 -299.90387 0.073901
207.478851 -539.690247 -299.957062 0.073867
226.227448 -530.638306 -299.257721 0.074317
245.908981 -523.738647 -300.163666 0.073734
264.245422 -513.888977 -299.775452 0.073983
282.324432 -503.635468 -299.527527 0.074143
300.714447 -493.907745 -299.984497 0.073849
317.908966 -482.201691 -299.630249 0.074077
335.765625 -471.465302 -300.273346 0.073664
351.819489 -458.189728 -299.688599 0.074039
368.059174 -445.223236 -299.67804 0.074046
384.245667 -432.158661 -299.998901 0.07384
398.475525 -416.944916 -299.199249 0.074355
415.164734 -404.241638 -300.611603 0.073448
428.748383 -388.424927 -300.130463 0.073756
443.578308 -373.709747 -300.901215 0.073263
455.276367 -356.373352 -299.941589 0.073877
469.579498 -341.060577 -301.082855 0.073148
479.383362 -322.49762 -299.732758 0.074011
490.28241 -304.803619 -299.494232 0.074164
500.294586 -286.609406 -299.11554 0.074409
511.917175 -269.291168 -300.075684 0.073791
521.687317 -250.903564 -300.314728 0.073638
532.587036 -232.945648 -301.567719 0.07284
537.131714 -212.260071 -299.621338 0.074082
546.166077 -193.4216 -300.582886 0.073466
551.018188 -173.102432 -299.630463 0.074077
559.110168 -153.782898 -300.826691 0.073311
563.886414 -133.480957 -300.616791 0.073445
565.666321 -112.583488 -299.211639 0.074347
570.386169 -92.332573 -299.756439 0.073996
121.131165 -533.858154 -299.827942 0.082362
140.17012 -528.83844 -299.648132 0.082485
158.879623 -522.727844 -299.232086 0.082771
177.790207 -517.290894 -299.588867 0.082526
196.327866 -510.683594 -299.660522 0.082477
214.607773 -503.384552 -299.715454 0.082439
232.865295 -495.95874 -300.090057 0.082182
249.678848 -485.562958 -299.043396 0.082902
268.239075 -478.509979 -300.451019 0.081935
284.923401 -467.971649 -300.078979 0.08219
301.267365 -456.960297 -299.776794 0.082397
317.493225 -445.80777 -299.762634 0.082407
333.827271 -434.758331 -300.217041 0.082095
348.135498 -421.123505 -299.260223 0.082752
363.23819 -408.532257 -299.409271 0.082649
379.737091 -397.338196 -301.02655 0.081544
392.284607 -381.96405 -299.881256 0.082325
406.373505 -368.154449 -300.328003 0.08202
418.662384 -352.71875 -299.833923 0.082358
430.075317 -336.647217 -299.136261 0.082837
442.908417 -321.689117 -299.815369 0.08237
454.818298 -305.97168 -300.228485 0.082088
465.362549 -289.311584 -300.121246 0.082161
475.642273 -272.485962 -300.231415 0.082085
483.45993 -254.321075 -299.194824 0.082797
493.769287 -237.476944 -300.091095 0.082181
502.853668 -219.940445 -300.606659 0.081829
508.972473 -201.132217 -299.74295 0.08242
515.008606 -182.387787 -299.238281 0.082767
522.378662 -164.105606 -299.894623 0.082316
526.860229 -144.912842 -299.27948 0.082739
532.75354 -126.111122 -299.854828 0.082343
536.815125 -106.841682 -299.782349 0.082393
541.4422 -87.64772 -300.410065 0.081963
114.895248 -506.374664 -299.78656 0.090873
133.311813 -502.961761 -300.412201 0.090419
151.05455 -496.981323 -299.893097 0.090795
168.635712 -490.655609 -299.544617 0.091049
186.53653 -485.214203 -300.127136 0.090626
203.842422 -478.131683 -300.089691 0.090653
220.725525 -470.102478 -299.842072 0.090833
237.15509 -461.205536 -299.417816 0.091141
253.826233 -452.798035 -299.696259 0.090939
270.647827 -444.524078 -300.472839 0.090375
285.991333 -433.789703 -299.980133 0.090732
300.810883 -422.383331 -299.385345 0.091165
316.950165 -412.778351 -300.467926 0.090379
331.283295 -400.737152 -300.18811 0.090581
344.743103 -387.731018 -299.545776 0.091048
358.967346 -375.60498 -299.964569 0.090744
372.841522 -363.03186 -300.445557 0.090395
384.640747 -348.465851 -299.653564 0.09097
396.888824 -334.37442 -299.62558 0.09099
409.676727 -320.679443 -300.371948 0.090448
421.061829 -305.821106 -300.454712 0.090388
431.547699 -290.316925 -300.28717 0.09051
440.891205 -274.097748 -299.730194 0.090914
449.784119 -257.673187 -299.27774 0.091244
458.183105 -241.023972 -298.900421 0.09152
468.568329 -225.356766 -300.18985 0.09058
475.40863 -207.936417 -299.583649 0.091021
483.40271 -191.027771 -300.09433 0.09065
489.875427 -173.487045 -300.041992 0.090687
496.65976 -156.025574 -300.562958 0.09031
502.21106 -138.133041 -300.719604 0.090197
508.012634 -120.254738 -301.406738 0.089703
509.850006 -101.474625 -300.13562 0.09062
512.129944 -82.902481 -299.527252 0.091062
890.804749 -111.490685 158.298233 0.026084
1184.301025 -105.193733 209.646149 0.007993
640.995117 58.494221 113.494568 0.073215
892.038696 -111.645172 137.72139 0.026306
892.514526 -79.276291 137.26651 0.026624
642.993774 58.676502 98.912537 0.07333
989.201111 -123.805702 129.819473 0.017929
892.91217 -79.311531 116.733498 0.02689
892.08252 -47.031303 116.328964 0.027229
641.222168 58.514931 83.847649 0.074475
991.0 -124.030846 107.245499 0.017991
892.766663 -79.298615 96.244209 0.027167
892.096619 -47.032166 95.927956 0.027491
890.959106 -14.927764 95.68605 0.027741
642.582092 58.638958 69.288475 0.074583
990.91156 -124.019775 84.537766 0.018154
989.203003 -87.864426 84.068413 0.018563
893.624939 -47.11256 75.752769 0.027536
889.80304 -14.908452 75.334801 0.028087
643.234314 58.698483 54.678017 0.074805
990.053833 -123.912544 61.872505 0.018338
989.668945 -87.905815 61.611282 0.01865
903.329956 -47.624283 56.093525 0.026641
892.193665 -14.948501 55.332947 0.027984
890.545471 17.069757 55.233116 0.028165
640.155579 58.417538 39.861362 0.076062
989.255981 -123.812569 39.311607 0.018481
991.039124 -88.027519 39.231445 0.018632
988.616333 -52.120617 39.036209 0.019005
893.84082 17.132969 35.251492 0.027909
892.828186 49.230499 35.258556 0.027889
641.661255 58.554897 25.406607 0.075826
989.984253 -123.903709 16.853033 0.018474
989.910522 -87.927269 16.787125 0.018764
987.305664 -52.051517 16.700472 0.019153
894.16333 17.139088 15.106742 0.027937
890.476624 49.100773 15.064543 0.028217
640.01709 58.404919 10.856064 0.076453
990.137085 -123.922836 -5.618199 0.018472
990.92041 -88.016975 -5.60108 0.018698
990.534119 -52.221725 -5.584671 0.018917
892.122864 49.191547 -5.030452 0.028044
642.648499 58.645008 -3.633116 0.075674
988.677673 -123.740189 -28.056175 0.018553
989.300964 -87.873192 -27.966251 0.018791
990.480164 -52.218941 -27.92849 0.018892
639.956299 58.399387 -18.094543 0.076422
991.307373 -124.069313 -50.665722 0.018292
990.655579 -87.993446 -50.438225 0.018623
990.238342 -52.206131 -50.289013 0.018844
641.006287 58.495167 -32.643154 0.075927
987.770386 -123.626755 -72.990524 0.018452
991.395203 -88.059143 -72.977432 0.018465
990.876465 -52.239834 -72.754105 0.018692
641.912964 58.577988 -47.261871 0.075378
990.826111 -124.009079 -95.86647 0.018086
989.527466 -87.89325 -95.373657 0.018463
990.210022 -52.204636 -95.197197 0.0186
640.901184 58.485641 -61.78537 0.075314
989.942871 -123.898537 -118.508682 0.017976
990.771912 -88.003784 -118.153076 0.018194
990.373169 -52.213299 -117.805771 0.01841
639.547241 58.361969 -76.28479 0.075255
990.793213 -124.004959 -141.480087 0.017704
989.568237 -87.896873 -140.763321 0.018069
989.775574 -52.181797 -140.435455 0.018239
642.049255 58.590366 -91.349525 0.073931
991.277893 -124.06562 -164.576431 0.017424
989.92749 -87.92878 -163.721985 0.017794
990.391724 -52.214218 -163.382996 0.017943
640.357422 58.435947 -105.930252 0.073775
989.958862 -123.900536 -187.525269 0.017238
989.068359 -87.85247 -186.638123 0.017573
988.526978 -52.115906 -186.062378 0.017793
1416.101929 -23.726473 -266.209015 0.003137
641.485962 58.538948 -121.07515 0.072677
991.743958 -124.123955 -211.270233 0.016802
990.107056 -87.944725 -210.112717 0.017182
989.658203 -52.175606 -209.484451 0.017392
1260.520996 -21.119698 -266.486206 0.005775
1418.003784 27.180046 -299.792572 0.003032
1417.894653 78.182648 -300.169769 0.00301
639.256165 58.33543 -135.687393 0.072484
1407.861694 179.654922 -300.006958 0.00302
1400.57666 230.109375 -300.022919 0.003019
1391.516479 280.278473 -300.045898 0.003018
1381.006348 330.176727 -300.144226 0.003012
1367.436646 379.329376 -299.963837 0.003022
1352.095703 427.925262 -299.778412 0.003033
1337.163086 476.670349 -300.071655 0.003016
1317.471313 523.701843 -299.682281 0.003039
1298.352661 570.911377 -299.806549 0.003032
1278.772217 618.018677 -300.219452 0.003007
1254.578613 662.921143 -299.938354 0.003024
1230.197754 707.6828 -299.99585 0.00302
1204.816528 751.919006 -300.201508 0.003008
1176.704346 794.476257 -300.116638 0.003013
1147.154907 836.030945 -300.048676 0.003017
1116.651367 876.889893 -300.118225 0.003013
1084.04834 916.093262 -300.009583 0.00302
1050.644165 954.606812 -300.064728 0.003016
1014.72937 990.786926 -299.782135 0.003033
979.528442 1027.672852 -300.098999 0.003014
942.35791 1062.598022 -300.215454 0.003008
903.405884 1095.531006 -300.154327 0.003011
863.030396 1126.677612 -299.997498 0.00302
821.982666 1156.898926 -299.985992 0.003021
779.614014 1185.224854 -299.873322 0.003028
737.481201 1213.992798 -300.25296 0.003005
692.661133 1238.356079 -299.928955 0.003024
647.223328 1261.418213 -299.688171 0.003038
991.526917 -124.096916 -234.849701 0.016474
989.460388 -87.887291 -233.461533 0.016879
991.749268 -52.285789 -233.407639 0.016895
1194.067871 -20.00626 -280.672821 0.007394
1275.510254 24.448484 -299.829315 0.00529
1274.96167 70.301407 -300.100616 0.005265
640.77948 58.474464 -151.223633 0.071084
1266.079956 161.561798 -299.970795 0.005277
1258.157959 206.710052 -299.66037 0.005305
1252.155151 252.208405 -300.195465 0.005256
1240.959961 296.693817 -299.873871 0.005285
1229.688965 341.117737 -299.918915 0.005281
1217.286011 385.259766 -300.07663 0.005267
1203.574463 429.048737 -300.303406 0.005246
1185.654663 471.304047 -299.86438 0.005286
1170.172607 514.54834 -300.431183 0.005234
1149.477783 555.532104 -300.04953 0.005269
1128.807251 596.46344 -300.054932 0.005269
1106.733643 636.65918 -300.075256 0.005267
1082.451538 675.552124 -299.879761 0.005285
1058.216675 714.476257 -300.084839 0.005266
1030.734131 751.184387 -299.752625 0.005297
1003.077393 787.701172 -299.74765 0.005297
974.979553 823.922546 -300.005035 0.005273
945.584778 859.150452 -300.266144 0.005249
913.569214 892.013794 -300.084656 0.005266
880.847229 924.141907 -300.050842 0.005269
846.553162 954.569946 -299.859894 0.005287
812.264954 985.007385 -300.058533 0.005268
775.850037 1012.865112 -299.858429 0.005287
738.770447 1039.781982 -299.774506 0.005295
701.162354 1065.957275 -299.863312 0.005286
662.503906 1090.570068 -299.896545 0.005283
622.979065 1113.776978 -299.928558 0.00528
582.246338 1134.779297 -299.756531 0.005296
989.158936 -123.800362 -258.108856 0.016261
990.869141 -88.012421 -257.563812 0.016403
990.072998 -52.197414 -256.703613 0.01663
1159.978516 -19.434813 -300.381073 0.008283
1158.300171 22.202213 -299.959656 0.008339
1157.453979 63.822384 -300.140625 0.008315
640.202087 58.421768 -166.448517 0.070211
1149.626465 146.701843 -300.07251 0.008324
1141.769897 187.588348 -299.58783 0.008388
1137.15918 229.046158 -300.343689 0.008288
1128.085815 269.707458 -300.313354 0.008292
1116.809082 309.804932 -300.081238 0.008322
1105.234009 349.79657 -300.154785 0.008313
1090.96106 388.904694 -299.880371 0.008349
1077.830811 428.442993 -300.309296 0.008292
1059.215576 465.758118 -299.592499 0.008388
1044.182739 504.643829 -300.275818 0.008297
1025.174438 541.703613 -300.213501 0.008305
1004.379639 577.778748 -300.010284 0.008332
983.182434 613.598938 -300.071167 0.008324
959.305176 647.694336 -299.693695 0.008374
935.934021 682.095215 -299.85614 0.008352
912.12854 716.280823 -300.281586 0.008296
884.742615 747.666687 -299.917542 0.008344
858.941895 780.427979 -300.484009 0.008269
829.851562 810.270996 -300.29895 0.008294
798.730896 837.988892 -299.741058 0.008368
769.758179 867.975708 -300.379211 0.008283
737.337769 894.14502 -300.072266 0.008324
704.512695 919.734436 -299.97049 0.008337
671.571167 945.202454 -300.212341 0.008305
637.309814 968.884338 -300.26651 0.008298
602.020264 991.006775 -300.224396 0.008303
