# .PCD v0.7 - Point Cloud Data file format
VERSION 0.7
FIELDS x y z rgba
SIZE 4 4 4 4
TYPE F F F U
COUNT 1 1 1 1
WIDTH 1160
HEIGHT 1
VIEWPOINT 0 0 0 1 0 0 0
POINTS 1160
DATA ascii
-0.95103198 -4.6685801 0.247125 4294967295
-0.95103198 -4.6619101 0.32609299 4294967295
-0.95103103 -4.7546 0.29911101 4294967295
-0.95103103 -4.7523599 0.33113 4294967295
-0.95103198 -4.66224 0.430785 4294967295
-0.95103103 -4.75209 0.40704 4294967295
-0.95103103 -4.7518301 0.48295099 4294967295
-0.95103198 -4.6645498 0.52899998 4294967295
-0.95103103 -4.75421 0.51451999 4294967295
-0.95103198 -4.6865702 0.59735602 4294967295
-0.95103103 -4.7645202 0.53475702 4294967295
-0.95103103 -4.73278 0.63549101 4294967295
-0.52307802 -4.4138398 2.08621 4294967295
-0.52307802 -4.1360202 2.08621 4294967295
-0.52307802 -4.1360202 2.2432401 4294967295
-0.52307802 -4.4138398 2.2432401 4294967295
-0.53461701 -4.4138398 2.08621 4294967295
-0.53461701 -4.1360202 2.08621 4294967295
-0.53461701 -4.1360202 2.2432401 4294967295
-0.53461701 -4.4138398 2.2432401 4294967295
-2.0156701 -4.4138398 2.08621 4294967295
-2.0156701 -4.1360202 2.08621 4294967295
-2.0156701 -4.1360202 2.2432401 4294967295
-2.0156701 -4.4138398 2.2432401 4294967295
-2.02721 -4.4138398 2.08621 4294967295
-2.02721 -4.1360202 2.08621 4294967295
-2.02721 -4.1360202 2.2432401 4294967295
-2.02721 -4.4138398 2.2432401 4294967295
-1.2982301 -4.1647 0.92321599 4294967295
-1.2869 -4.17381 0.92321599 4294967295
-1.2869 -4.17381 2.4890399 4294967295
-1.2982301 -4.1647 2.4890399 4294967295
-1.26964 -4.1746602 0.92321599 4294967295
-1.26964 -4.1746602 2.4890399 4294967295
-1.25658 -4.16676 0.92321599 4294967295
-1.25658 -4.16676 2.4890399 4294967295
-1.25535 -4.1547399 0.92321599 4294967295
-1.25535 -4.1547399 2.4890399 4294967295
-1.26668 -4.1456299 0.92321599 4294967295
-1.26668 -4.1456299 2.4890399 4294967295
-1.28394 -4.1447701 0.92321599 4294967295
-1.28394 -4.1447701 2.4890399 4294967295
-1.2970001 -4.1526699 0.92321599 4294967295
-1.2970001 -4.1526699 2.4890399 4294967295
-1.27679 -4.1597199 0.92321599 4294967295
-1.27679 -4.1597199 2.4890399 4294967295
-1.34998 -6.24224 1.42415 4294967295
-1.30891 -6.26932 1.42415 4294967295
-1.30891 -6.26932 1.56854 4294967295
-1.34998 -6.24224 1.56854 4294967295
-1.248 -6.2696099 1.42415 4294967295
-1.248 -6.2696099 1.56854 4294967295
-1.2029099 -6.24296 1.42415 4294967295
-1.2029099 -6.24296 1.56854 4294967295
-1.20008 -6.2049799 1.42415 4294967295
-1.20008 -6.2049799 1.56854 4294967295
-1.24115 -6.1778998 1.42415 4294967295
-1.24115 -6.1778998 1.56854 4294967295
-1.30207 -6.1776099 1.42415 4294967295
-1.30207 -6.1776099 1.56854 4294967295
-1.34715 -6.2042599 1.42415 4294967295
-1.34715 -6.2042599 1.56854 4294967295
-1.27503 -6.2236099 1.42415 4294967295
-1.27503 -6.2236099 1.56854 4294967295
-1.34998 -4.1816401 1.42415 4294967295
-1.30891 -4.2087202 1.42415 4294967295
-1.30891 -4.2087202 1.56854 4294967295
-1.34998 -4.1816401 1.56854 4294967295
-1.248 -4.2090101 1.42415 4294967295
-1.248 -4.2090101 1.56854 4294967295
-1.2029099 -4.1823602 1.42415 4294967295
-1.2029099 -4.1823602 1.56854 4294967295
-1.20008 -4.1443801 1.42415 4294967295
-1.20008 -4.1443801 1.56854 4294967295
-1.24115 -4.1173 1.42415 4294967295
-1.24115 -4.1173 1.56854 4294967295
-1.30207 -4.1170101 1.42415 4294967295
-1.30207 -4.1170101 1.56854 4294967295
-1.34715 -4.1436601 1.42415 4294967295
-1.34715 -4.1436601 1.56854 4294967295
-1.27503 -4.1630101 1.42415 4294967295
-1.27503 -4.1630101 1.56854 4294967295
-0.49387601 -4.1647 2.2518599 4294967295
-0.49387601 -4.17381 2.2632 4294967295
-2.0597 -4.17381 2.2632 4294967295
-2.0597 -4.1647 2.2518599 4294967295
-0.49387601 -4.1746602 2.2804501 4294967295
-2.0597 -4.1746602 2.2804501 4294967295
-0.49387601 -4.16676 2.29352 4294967295
-2.0597 -4.16676 2.29352 4294967295
-0.49387601 -4.1547399 2.29474 4294967295
-2.0597 -4.1547399 2.29474 4294967295
-0.49387601 -4.1456299 2.2834101 4294967295
-2.0597 -4.1456299 2.2834101 4294967295
-0.49387601 -4.1447701 2.26616 4294967295
-2.0597 -4.1447701 2.26616 4294967295
-0.49387601 -4.1526699 2.2530899 4294967295
-2.0597 -4.1526699 2.2530899 4294967295
-0.49387601 -4.1597199 2.2732999 4294967295
-2.0597 -4.1597199 2.2732999 4294967295
-1.09929 -3.7090001 0.81619197 4294967295
-1.09929 -3.63399 0.90730399 4294967295
-1.01165 -3.7090001 0.81619197 4294967295
-1.01165 -3.63399 0.90730399 4294967295
-1.248 -3.7090001 0.81619197 4294967295
-1.248 -3.63399 0.90730399 4294967295
-1.16037 -3.7090001 0.81619197 4294967295
-1.16037 -3.63399 0.90730399 4294967295
-1.41265 -3.7090001 0.81619197 4294967295
-1.41265 -3.63399 0.90730399 4294967295
-1.32502 -3.7090001 0.81619197 4294967295
-1.32502 -3.63399 0.90730399 4294967295
-1.55606 -3.7090001 0.81619197 4294967295
-1.55606 -3.63399 0.90730399 4294967295
-1.46842 -3.7090001 0.81619197 4294967295
-1.46842 -3.63399 0.90730399 4294967295
-1.09929 -3.6614699 1.0182 4294967295
-1.09929 -3.5864501 1.10931 4294967295
-1.01165 -3.6614699 1.0182 4294967295
-1.01165 -3.5864501 1.10931 4294967295
-1.248 -3.6614699 1.0182 4294967295
-1.248 -3.5864501 1.10931 4294967295
-1.16037 -3.6614699 1.0182 4294967295
-1.16037 -3.5864501 1.10931 4294967295
-1.41265 -3.6614699 1.0182 4294967295
-1.41265 -3.5864501 1.10931 4294967295
-1.32502 -3.6614699 1.0182 4294967295
-1.32502 -3.5864501 1.10931 4294967295
-1.55606 -3.6614699 1.0182 4294967295
-1.55606 -3.5864501 1.10931 4294967295
-1.46842 -3.6614699 1.0182 4294967295
-1.46842 -3.5864501 1.10931 4294967295
-0.52038699 -4.2673802 2.1174099 4294967295
-0.52038699 -4.1771598 2.16624 4294967295
-0.52038699 -4.2673802 2.21507 4294967295
-0.52038699 -4.3575902 2.16624 4294967295
-0.52342498 -4.2673802 2.1174099 4294967295
-0.52342498 -4.1771598 2.16624 4294967295
-0.52342498 -4.2673802 2.21507 4294967295
-0.52342498 -4.3575902 2.16624 4294967295
-0.534253 -4.2673802 2.1174099 4294967295
-0.534253 -4.1771598 2.16624 4294967295
-0.534253 -4.2673802 2.21507 4294967295
-0.534253 -4.3575902 2.16624 4294967295
-0.53729099 -4.2673802 2.1174099 4294967295
-0.53729099 -4.1771598 2.16624 4294967295
-0.53729099 -4.2673802 2.21507 4294967295
-0.53729099 -4.3575902 2.16624 4294967295
-2.01298 -4.2673802 2.1174099 4294967295
-2.01298 -4.1771598 2.16624 4294967295
-2.01298 -4.2673802 2.21507 4294967295
-2.01298 -4.3575902 2.16624 4294967295
-2.01601 -4.2673802 2.1174099 4294967295
-2.01601 -4.1771598 2.16624 4294967295
-2.01601 -4.2673802 2.21507 4294967295
-2.01601 -4.3575902 2.16624 4294967295
-2.02684 -4.2673802 2.1174099 4294967295
-2.02684 -4.1771598 2.16624 4294967295
-2.02684 -4.2673802 2.21507 4294967295
-2.02684 -4.3575902 2.16624 4294967295
-2.02988 -4.2673802 2.1174099 4294967295
-2.02988 -4.1771598 2.16624 4294967295
-2.02988 -4.2673802 2.21507 4294967295
-2.02988 -4.3575902 2.16624 4294967295
-1.41645 -5.8948698 1.1784199 4294967295
-1.3389601 -5.94595 1.1784199 4294967295
-1.3389601 -5.94595 1.45085 4294967295
-1.41645 -5.8948698 1.45085 4294967295
-1.22402 -5.9465199 1.1784199 4294967295
-1.22402 -5.9465199 1.45085 4294967295
-1.13896 -5.8962302 1.1784199 4294967295
-1.13896 -5.8962302 1.45085 4294967295
-1.13361 -5.8245602 1.1784199 4294967295
-1.13361 -5.8245602 1.45085 4294967295
-1.2111 -5.7734799 1.1784199 4294967295
-1.2111 -5.7734799 1.45085 4294967295
-1.32604 -5.7729101 1.1784199 4294967295
-1.32604 -5.7729101 1.45085 4294967295
-1.4111 -5.8232002 1.1784199 4294967295
-1.4111 -5.8232002 1.45085 4294967295
-1.27503 -5.8597102 1.1784199 4294967295
-1.27503 -5.8597102 1.45085 4294967295
-1.84621 -4.16046 2.38957 4294967295
-1.84789 -4.1618099 2.38957 4294967295
-1.84789 -4.1618099 2.1570401 4294967295
-1.84621 -4.16046 2.1570401 4294967295
-1.85045 -4.1619401 2.38957 4294967295
-1.85045 -4.1619401 2.1570401 4294967295
-1.8523901 -4.1607599 2.38957 4294967295
-1.8523901 -4.1607599 2.1570401 4294967295
-1.85258 -4.1589799 2.38957 4294967295
-1.85258 -4.1589799 2.1570401 4294967295
-1.85089 -4.15763 2.38957 4294967295
-1.85089 -4.15763 2.1570401 4294967295
-1.84833 -4.1574998 2.38957 4294967295
-1.84833 -4.1574998 2.1570401 4294967295
-1.84639 -4.1586699 2.38957 4294967295
-1.84639 -4.1586699 2.1570401 4294967295
-1.84939 -4.1597199 2.38957 4294967295
-1.84939 -4.1597199 2.1570401 4294967295
-0.655595 -4.16046 2.38957 4294967295
-0.657278 -4.1618099 2.38957 4294967295
-0.657278 -4.1618099 2.1570401 4294967295
-0.655595 -4.16046 2.1570401 4294967295
-0.65983999 -4.1619401 2.38957 4294967295
-0.65983999 -4.1619401 2.1570401 4294967295
-0.66178 -4.1607599 2.38957 4294967295
-0.66178 -4.1607599 2.1570401 4294967295
-0.66196197 -4.1589799 2.38957 4294967295
-0.66196197 -4.1589799 2.1570401 4294967295
-0.66027898 -4.15763 2.38957 4294967295
-0.66027898 -4.15763 2.1570401 4294967295
-0.65771699 -4.1574998 2.38957 4294967295
-0.65771699 -4.1574998 2.1570401 4294967295
-0.65577698 -4.1586699 2.38957 4294967295
-0.65577698 -4.1586699 2.1570401 4294967295
-0.65877801 -4.1597199 2.38957 4294967295
-0.65877801 -4.1597199 2.1570401 4294967295
-2.64221 6.55686 -0.208018 4294967295
-2.64221 7.1187901 -0.208018 4294967295
-2.64221 7.1187901 -0.154541 4294967295
-2.64221 6.55686 -0.096202902 4294967295
-2.7484601 6.55686 -0.208018 4294967295
-2.7484601 7.1188202 -0.208018 4294967295
-2.7484601 7.1188202 -0.154541 4294967295
-2.7484601 6.55686 -0.096202902 4294967295
-3.62012 6.55686 -0.208018 4294967295
-3.62012 7.1187901 -0.208018 4294967295
-3.62012 7.1187901 -0.154541 4294967295
-3.62012 6.55686 -0.096202902 4294967295
-3.7263401 6.55686 -0.208018 4294967295
-3.7263401 7.1187901 -0.208018 4294967295
-3.7263401 7.1187901 -0.154541 4294967295
-3.7263401 6.55686 -0.096202902 4294967295
-1.79892 -1.7607501 -0.081427403 4294967295
-0.62111998 -1.80001 -0.0814275 4294967295
-0.62111998 -1.4466701 -0.0814275 4294967295
-1.60262 0.123733 -0.081427597 4294967295
-1.75966 -6.6682401 -0.081427097 4294967295
-0.58186001 -6.6682401 -0.081427097 4294967295
-0.58326399 -3.0955801 -0.081427403 4294967295
-1.7204 -3.0955801 -0.081427403 4294967295
-6.0782599 -0.77924699 -0.0814275 4294967295
-6.0782599 -0.93628597 -0.0814275 4294967295
-4.9397202 -0.93628597 -0.0814275 4294967295
-4.9445601 -0.30812699 -0.081427597 4294967295
-4.9397202 -2.3496499 -0.081427403 4294967295
-6.0782599 -2.3496499 -0.081427403 4294967295
-6.0782599 -10.0446 -0.081426904 4294967295
-1.73862 -11.2224 -0.081426799 4294967295
-1.2100199 -11.2224 -0.081426799 4294967295
-1.2100199 -11.0261 -0.081426799 4294967295
-1.75966 -11.0261 -0.081426799 4294967295
-1.78573 -9.6520004 -0.081426904 4294967295
-0.62111998 -9.6520004 -0.081426904 4294967295
-0.62111998 -8.0030804 -0.081427 4294967295
-1.75886 -8.0030804 -0.081427 4294967295
-4.5078602 -12.4788 -0.081426702 4294967295
-3.9974799 -15.3055 -0.081426501 4294967295
-1.67531 -15.0699 -0.081426501 4294967295
-2.2307799 6.7371602 -0.081427999 4294967295
-4.0834098 6.7371602 -0.081427999 4294967295
-1.60262 0.123733 -0.20237599 4294967295
-2.2307799 6.7371702 -0.20235901 4294967295
-0.62111998 -1.4466701 -0.20237599 4294967295
-0.62111998 -1.80001 -0.20237599 4294967295
-1.79892 -1.7607501 -0.20237599 4294967295
-1.7204 -3.0955801 -0.20237599 4294967295
-0.58326399 -3.0955801 -0.20237599 4294967295
-0.58186001 -6.6682401 -0.20237499 4294967295
-1.75966 -6.6682401 -0.20237499 4294967295
-1.75886 -8.0030804 -0.20237499 4294967295
-0.62111998 -8.0030804 -0.20237499 4294967295
-0.62111998 -9.6520004 -0.20237499 4294967295
-1.78573 -9.6520004 -0.20237499 4294967295
-1.75966 -11.0261 -0.20237499 4294967295
-1.2100199 -11.0261 -0.20237499 4294967295
-1.2100199 -11.2224 -0.20237499 4294967295
-1.73862 -11.2224 -0.20237499 4294967295
-1.67531 -15.0699 -0.20237499 4294967295
-3.9974799 -15.3054 -0.20237499 4294967295
-4.5078602 -12.4787 -0.20237499 4294967295
-6.0782599 -10.0446 -0.20237499 4294967295
-6.0782599 -2.3496499 -0.20237599 4294967295
-4.9397202 -2.3496499 -0.20237599 4294967295
-4.9397202 -0.93628597 -0.20237599 4294967295
-6.0782599 -0.93628597 -0.20237599 4294967295
-6.0782599 -0.77924699 -0.20237599 4294967295
-4.9445601 -0.30812699 -0.20237599 4294967295
-4.0834098 6.7371702 -0.20235901 4294967295
-3.0590501 6.39118 -0.315752 4294967295
-2.9507999 6.5550399 -0.20671199 4294967295
-2.8457401 6.5652599 -0.211381 4294967295
-2.58623 6.7297502 -0.102326 4294967295
-2.6944799 6.5658898 -0.211365 4294967295
-2.3492501 6.2734799 -0.102309 4294967295
-2.3696799 5.7169399 -0.209502 4294967295
-2.4554 6.1738501 -0.209503 4294967295
-2.6124799 5.9703598 -0.318243 4294967295
-2.5920501 6.5268898 -0.21105 4294967295
-2.1748099 5.1826 -0.102302 4294967295
-2.16676 4.5377998 -0.20875899 4294967295
-2.25547 5.1717701 -0.208765 4294967295
-2.3616199 5.0721402 -0.31595901 4294967295
-2.0494399 4.1291399 -0.102297 4294967295
-2.0746601 3.6995101 -0.208753 4294967295
-2.11132 4.119 -0.208753 4294967295
-2.1919799 4.10817 -0.31521499 4294967295
-1.97249 3.19538 -0.102297 4294967295
-1.9772 2.6825099 -0.208799 4294967295
-2.0174999 3.19678 -0.208799 4294967295
-2.07937 3.18663 -0.315256 4294967295
-2.8515601 6.3624001 -0.32010499 4294967295
-2.83372 6.17661 -0.46616399 4294967295
-2.9361401 6.2156 -0.466479 4294967295
-3.1187899 6.1382699 -0.607651 4294967295
-3.1641099 6.25983 -0.45630601 4294967295
-3.1187899 6.2594099 -0.462428 4294967295
-2.5655701 5.5620298 -0.46059501 4294967295
-2.70222 5.9150701 -0.46214101 4294967295
-2.7868099 5.76827 -0.60851502 4294967295
-2.3603499 4.5251799 -0.464497 4294967295
-2.47456 5.0703502 -0.46523499 4294967295
-2.5643001 5.0150599 -0.60913301 4294967295
-2.2330799 3.68238 -0.46449101 4294967295
-2.2885201 4.1011901 -0.464497 4294967295
-2.4014499 4.0994 -0.61377299 4294967295
-2.0911601 2.6668301 -0.46453899 4294967295
-2.14833 3.16956 -0.46449301 4294967295
-2.2448699 3.16258 -0.613774 4294967295
-2.9958899 6.0838299 -0.61315501 4294967295
-2.9618001 5.9836302 -0.72764099 4294967295
-3.0393801 6.0376501 -0.72825903 4294967295
-2.8303101 5.7220998 -0.72361797 4294967295
-3.0834301 5.9896698 -0.84524298 4294967295
-3.1175201 6.08987 -0.73075801 4294967295
-2.54368 4.5037599 -0.73371297 4294967295
-2.63469 4.99544 -0.72907197 4294967295
-2.7119901 4.9522901 -0.852925 4294967295
-2.73261 5.4635901 -0.72834498 4294967295
-2.4000599 3.6043601 -0.733769 4294967295
-2.4719 4.0283499 -0.73377001 4294967295
-2.54228 4.0087199 -0.85370898 4294967295
-2.21645 2.6284001 -0.73371798 4294967295
-2.3011999 3.1412301 -0.73371601 4294967295
-2.37164 3.0701699 -0.85371298 4294967295
-2.9075999 5.6789498 -0.847471 4294967295
-2.9075999 5.4204402 -1.18765 4294967295
-3.00529 5.6789498 -1.18292 4294967295
-2.7156 4.4840899 -1.18961 4294967295
-2.81352 4.95224 -1.18888 4294967295
-2.9112101 4.95224 -1.52433 4294967295
-3.16154 5.7815499 -1.75532 4294967295
-3.1236 5.71029 -1.528 4294967295
-3.1235399 5.6849298 -1.75368 4294967295
-3.04544 5.5170598 -1.52473 4294967295
-3.0720999 5.5587301 -1.75213 4294967295
-3.1122501 5.6553502 -1.75377 4294967295
-2.8752601 4.4839902 -1.75752 4294967295
-2.9693401 4.9521899 -1.75629 4294967295
-3.0048101 4.9521899 -1.98641 4294967295
-3.04076 5.4204402 -1.7532099 4294967295
-2.56236 3.5332699 -1.1864901 4294967295
-2.63414 4.0086899 -1.18643 4294967295
-2.7356801 4.0086398 -1.52239 4294967295
-2.7049999 3.53317 -1.74217 4294967295
-2.7864599 4.0085702 -1.74534 4294967295
-2.8445899 4.0085201 -1.9773 4294967295
-2.36584 2.5750999 -1.16983 4294967295
-2.4647 3.0382299 -1.16989 4294967295
-2.55655 3.0381999 -1.50261 4294967295
-2.5329199 2.5097001 -1.72724 4294967295
-2.63059 3.00474 -1.74384 4294967295
-2.68137 3.0046599 -1.9668 4294967295
-3.0474999 4.9521899 -2.0285001 4294967295
-3.0474999 4.4839301 -2.0392001 4294967295
-3.1616001 4.9521799 -2.0782199 4294967295
-2.9586899 3.5330999 -2.02652 4294967295
-3.0474999 4.0085201 -2.0387001 4294967295
-3.1616001 4.0085101 -2.0884199 4294967295
-2.88428 2.4609101 -2.0292599 4294967295
-2.9586899 2.9893401 -2.02759 4294967295
-3.1616001 2.9893501 -2.08899 4294967295
-1.89212 2.12099 -0.102297 4294967295
-1.88661 1.55537 -0.208803 4294967295
-1.92668 2.11549 -0.208803 4294967295
-1.9716901 2.1168799 -0.31530499 4294967295
-1.96277 1.51976 -0.46454 4294967295
-2.0132899 2.0867801 -0.46453699 4294967295
-2.0822401 2.0697 -0.613774 4294967295
-2.0480001 1.48294 -0.73362702 4294967295
-2.12587 2.06299 -0.73362899 4294967295
-2.18221 2.04163 -0.853571 4294967295
-2.17261 1.46378 -1.16548 4294967295
-2.26318 2.0291901 -1.16557 4294967295
-2.35624 1.99725 -1.48174 4294967295
-2.3445101 1.4048001 -1.71106 4294967295
-2.44716 1.95072 -1.71533 4294967295
-2.5211899 1.91725 -1.95656 4294967295
-2.7985101 1.34115 -2.02191 4294967295
-2.88428 1.90013 -2.0338199 4294967295
-3.1616001 1.88481 -2.09461 4294967295
-1.80828 0.93740302 -0.102297 4294967295
-1.79408 0.28496 -0.20888799 4294967295
-1.83785 0.90843099 -0.20888799 4294967295
-1.8724101 0.90292603 -0.315393 4294967295
-1.85932 0.2174 -0.46462601 4294967295
-1.90808 0.86433601 -0.46454 4294967295
-1.94968 0.83423001 -0.61377198 4294967295
-1.9221801 0.144885 -0.73368698 4294967295
-1.97688 0.80030602 -0.73368698 4294967295
-2.02051 0.79359198 -0.85354197 4294967295
-1.99454 0.049634401 -1.16354 4294967295
-2.06567 0.732265 -1.16348 4294967295
-2.1466501 0.71982002 -1.47548 4294967295
-2.1442399 -0.077742197 -1.7060699 4294967295
-2.2511799 0.65377098 -1.70807 4294967295
-2.3420999 0.607243 -1.94165 4294967295
-2.7051799 -0.143298 -2.0246301 4294967295
-2.7985101 0.60773599 -2.0276201 4294967295
-3.1616001 0.59061003 -2.1048801 4294967295
-2.18736 -0.86331302 -1.9349 4294967295
-2.64377 -1.59979 -2.0293601 4294967295
-2.7051799 -0.88027197 -2.0331199 4294967295
-3.1616001 -0.87977898 -2.1190801 4294967295
-1.99227 -0.78091103 -1.47215 4294967295
-2.0353899 -1.56648 -1.7009799 4294967295
-2.08283 -0.79726398 -1.70231 4294967295
-1.85373 -0.706981 -0.85355502 4294967295
-1.85145 -1.5375299 -1.1621701 4294967295
-1.9471 -0.719585 -1.16221 4294967295
-1.75736 -2.41677 -0.85350198 4294967295
-1.79706 -3.35167 -1.1584899 4294967295
-1.79778 -2.45982 -1.1584899 4294967295
-1.89115 -2.47242 -1.46715 4294967295
-1.94244 -3.43325 -1.6968 4294967295
-1.99611 -2.5109601 -1.70047 4294967295
-2.0866799 -2.5273099 -1.93062 4294967295
-2.6045001 -3.4900501 -2.0443399 4294967295
-2.64377 -2.5455799 -2.0448501 4294967295
-3.1615901 -2.5625401 -2.14307 4294967295
-1.75026 -3.5483501 -0.85349 4294967295
-1.79566 -3.813 -1.1533999 4294967295
-1.80204 -3.5732801 -1.15341 4294967295
-1.84246 -3.6163199 -1.4584 4294967295
-1.97719 -3.85532 -1.6962 4294967295
-1.9722199 -3.6337099 -1.70128 4294967295
-2.0771799 -3.67225 -1.93459 4294967295
-2.63427 -3.8757501 -2.04829 4294967295
-2.6045001 -3.6752801 -2.0438099 4294967295
-3.1615901 -3.6935501 -2.15804 4294967295
-2.0705199 -4.9823599 -1.88943 4294967295
-2.5978401 -6.1297302 -1.97386 4294967295
-2.63427 -5.0200801 -2.02351 4294967295
-3.1615901 -5.0231099 -2.13273 4294967295
-2.03931 -6.3294301 -1.8298301 4294967295
-2.60306 -6.6019702 -1.9592201 4294967295
-2.5978401 -6.3645501 -1.96918 4294967295
-3.1615901 -6.4022698 -2.10326 4294967295
-1.8413301 -4.95785 -1.43909 4294967295
-1.9346499 -6.0848899 -1.63232 4294967295
-1.94076 -4.9649701 -1.64656 4294967295
-1.73804 -4.9106302 -0.85346699 4294967295
-1.78371 -6.05548 -1.13915 4294967295
-1.7895499 -4.93292 -1.1391701 4294967295
-1.7368 -6.27946 -0.85342801 4294967295
-1.78901 -6.5444298 -1.1284 4294967295
-1.78441 -6.2981501 -1.12842 4294967295
-1.83592 -6.3204398 -1.41412 4294967295
-1.94057 -6.56498 -1.61163 4294967295
-1.93987 -6.32231 -1.62236 4294967295
-1.76227 -7.2771401 -0.85334301 4294967295
-1.8232 -8.0463696 -1.10824 4294967295
-1.80233 -7.29497 -1.10831 4294967295
-1.8499399 -7.3136601 -1.3832999 4294967295
-1.98229 -8.0552101 -1.56666 4294967295
-1.9689699 -7.3046598 -1.58674 4294967295
-2.0729201 -7.30653 -1.79498 4294967295
-2.63146 -8.0918198 -1.90351 4294967295
-2.60306 -7.3521399 -1.92839 4294967295
-3.1615901 -7.38726 -2.06775 4294967295
-1.88446 -10.3697 -0.853046 4294967295
-1.89733 -10.6699 -1.01336 4294967295
-1.9315701 -10.3806 -1.01327 4294967295
-1.90385 -9.3724699 -1.2683901 4294967295
-1.86379 -9.35464 -1.01343 4294967295
-2.0887799 -10.668 -1.37105 4294967295
-2.0481901 -9.3597603 -1.46586 4294967295
-2.1672201 -9.3507605 -1.66931 4294967295
-2.69736 -10.6654 -1.73476 4294967295
-2.63146 -9.3608799 -1.83555 4294967295
-3.1615901 -9.4064798 -1.96896 4294967295
-1.87122 -11.028 -0.85304701 4294967295
-1.9399 -11.4077 -0.98908901 4294967295
-1.9189 -11.0387 -0.98917902 4294967295
-1.96601 -11.0496 -1.1494 4294967295
-2.1482601 -11.4291 -1.32131 4294967295
-2.1266999 -11.0603 -1.34549 4294967295
-2.27104 -11.0476 -1.54296 4294967295
-2.73528 -11.4376 -1.67647 4294967295
-2.69736 -11.0453 -1.70202 4294967295
-3.1615901 -11.0555 -1.86827 4294967295
-1.97413 -12.2706 -0.85274702 4294967295
-2.0905399 -13.1577 -0.88484001 4294967295
-2.00862 -12.284 -0.88505 4294967295
-2.0562999 -12.2947 -1.02118 4294967295
-2.28016 -13.1906 -1.03616 4294967295
-2.2114401 -12.3143 -1.1402 4294967295
-2.3721299 -12.325 -1.3363 4294967295
-2.79845 -13.2295 -1.3123699 4294967295
-2.73528 -12.3443 -1.49349 4294967295
-3.1615901 -12.3421 -1.65255 4294967295
-2.09131 -13.4849 -0.85247803 4294967295
-2.1589501 -13.8262 -0.85799003 4294967295
-2.1236899 -13.4857 -0.85804999 4294967295
-2.15818 -13.4991 -0.89035201 4294967295
-2.3200099 -13.8564 -0.96547002 4294967295
-2.28686 -13.5284 -0.99225998 4294967295
-2.4419999 -13.548 -1.11128 4294967295
-2.80514 -13.8912 -1.18845 4294967295
-2.79845 -13.5534 -1.23235 4294967295
-3.1615901 -13.5727 -1.38954 4294967295
-2.1786499 -14.4719 -0.431036 4294967295
-2.1811399 -14.4908 -0.64094597 4294967295
-2.1240799 -13.8066 -0.64250797 4294967295
-2.27999 -15.1508 -0.64123201 4294967295
-2.22542 -14.4854 -0.85270399 4294967295
-2.2577901 -14.4862 -0.85827601 4294967295
-2.40148 -15.132 -0.91596001 4294967295
-2.3350201 -14.4728 -0.92124599 4294967295
-2.4637001 -14.5022 -1.02315 4294967295
-2.8201499 -15.1255 -1.09835 4294967295
-2.80514 -14.5091 -1.14258 4294967295
-3.1615901 -14.5146 -1.2636499 4294967295
-2.7429299 -15.1617 -0.851726 4294967295
-2.8201499 -15.1482 -0.91469502 4294967295
-3.1615901 -15.1552 -1.03412 4294967295
-2.6986499 -15.1744 -0.429993 4294967295
-2.7429299 -15.169 -0.64174998 4294967295
-3.1615901 -15.1852 -0.640486 4294967295
-3.1628499 6.5543599 -0.206714 4294967295
-2.9495499 6.7284498 -0.102343 4294967295
-3.01372 6.2696199 -0.46709701 4294967295
-3.1628399 6.0902901 -0.72463602 4294967295
-3.1615801 5.9243999 -1.1886899 4294967295
-3.0834501 5.87218 -1.18619 4294967295
-3.04544 5.7755599 -1.1845599 4294967295
-1.18836 -3.78807 -0.52189499 4294967295
-1.18252 -4.9106302 -0.52187699 4294967295
-0.63284099 -4.9106302 -0.190304 4294967295
-1.18252 -6.0331802 -0.52187598 4294967295
-1.71147 -3.78807 -0.52437901 4294967295
-1.15595 -3.78807 -0.192789 4294967295
-1.15592 -6.0331802 -0.19278599 4294967295
-1.7056 -6.0331802 -0.52435899 4294967295
-2.3348801 0.11096 -0.85360199 4294967295
-2.3076799 0.144885 -0.73368698 4294967295
-2.2804799 0.17881 -0.61377299 4294967295
-2.6931801 0.144885 -0.73368698 4294967295
-2.2448201 0.2174 -0.46462601 4294967295
-2.2091601 0.25598899 -0.31547901 4294967295
-2.6303201 0.2174 -0.46462601 4294967295
-2.1500101 0.313932 -0.102297 4294967295
-2.17958 0.28496099 -0.20888799 4294967295
-2.5650799 0.28496099 -0.20888799 4294967295
-2.2392299 -0.706981 -0.85355502 4294967295
-2.6247301 -0.706981 -0.85355502 4294967295
-2.14359 -1.52492 -0.85350901 4294967295
-2.1428699 -2.41678 -0.85350198 4294967295
-2.5283699 -2.41678 -0.85350198 4294967295
-2.1421499 -3.30863 -0.85349399 4294967295
-2.52126 -3.5483501 -0.85349 4294967295
-2.1357601 -3.5483501 -0.85349 4294967295
-2.12938 -3.78807 -0.85348499 4294967295
-2.4919901 -1.73803 -0.100526 4294967295
-2.52156 -1.767 -0.20711701 4294967295
-2.5223601 -1.76604 -0.255375 4294967295
-2.44926 -3.7890301 -0.14701401 4294967295
-2.59043 -1.80463 -0.73362899 4294967295
-2.61763 -1.83856 -0.85354298 4294967295
-2.5580201 -1.80463 -0.404522 4294967295
-2.48247 -3.78807 -0.52437901 4294967295
-2.0969701 -3.78807 -0.52437901 4294967295
-2.0645599 -3.78807 -0.195272 4294967295
-2.6240101 -1.59883 -0.85354799 4294967295
-2.1108899 -6.5257401 -0.85340798 4294967295
-2.1317699 -7.2771401 -0.85334301 4294967295
-2.5012701 -7.2771401 -0.85334301 4294967295
-2.1526401 -8.0285397 -0.85327798 4294967295
-2.54844 -9.3437901 -0.85320699 4294967295
-2.2124801 -10.659 -0.85313702 4294967295
-2.1861801 -9.3437901 -0.85320699 4294967295
-1.85092 -9.0544596 -0.85311699 4294967295
-2.2204199 -9.0544596 -0.85311699 4294967295
-2.23348 -11.028 -0.85304701 4294967295
-2.6029799 -11.028 -0.85304701 4294967295
-2.2617199 -11.397 -0.85295701 4294967295
-2.3436301 -12.2706 -0.85274702 4294967295
-2.71313 -12.2706 -0.85274702 4294967295
-2.42555 -13.1443 -0.85253799 4294967295
-2.1017001 -6.0331802 -0.85344797 4294967295
-2.1063001 -6.27946 -0.85342801 4294967295
-2.4758 -6.27946 -0.85342801 4294967295
-2.04849 -6.0331802 -0.19527 4294967295
-2.0750999 -6.0331802 -0.52435899 4294967295
-2.4446001 -6.0331802 -0.52435899 4294967295
-2.8303101 -13.4849 -0.85247803 4294967295
-2.4960699 -13.8254 -0.85241699 4294967295
-2.4608099 -13.4849 -0.85247803 4294967295
-2.4910901 -13.7877 -0.43259799 4294967295
-2.4935801 -13.8066 -0.64250797 4294967295
-2.86308 -13.8066 -0.64250797 4294967295
-2.8278201 -13.466 -0.64256799 4294967295
-2.7458999 -12.5923 -0.64277703 4294967295
-2.4491899 -6.27946 -0.52433902 4294967295
-2.4700699 -7.0308599 -0.169092 4294967295
-2.5012701 -7.2771401 -0.49816099 4294967295
-2.52214 -8.0285397 -0.49809599 4294967295
-2.54844 -9.3437901 -0.142841 4294967295
-2.54844 -9.3437901 -0.49802399 4294967295
-2.5747499 -10.659 -0.497953 4294967295
-2.6029799 -11.028 -0.49786299 4294967295
-2.71767 -12.2234 -0.28768399 4294967295
-2.6415901 -14.4901 -0.43155399 4294967295
-2.6415901 -12.6115 -1.13406 4294967295
-3.1615901 -13.314 -1.13302 4294967295
-3.1695399 -12.6659 -1.79628 4294967295
-3.1695399 -13.5727 -1.6133 4294967295
-3.1695399 -13.8965 -1.53328 4294967295
-3.3749101 6.5550399 -0.20671301 4294967295
-3.26666 6.39118 -0.315752 4294967295
-3.4774599 6.5652599 -0.211382 4294967295
-3.62871 6.5658898 -0.211366 4294967295
-3.7369599 6.7297502 -0.102327 4294967295
-3.9535201 5.7169399 -0.20950399 4294967295
-3.9739399 6.2734799 -0.10231 4294967295
-3.8678 6.17384 -0.20950501 4294967295
-3.7311399 6.5268898 -0.211051 4294967295
-3.7107201 5.9703598 -0.31824499 4294967295
-4.1564298 4.5377998 -0.20875999 4294967295
-4.1483798 5.1826 -0.102303 4294967295
-4.0677199 5.1717701 -0.208766 4294967295
-3.96157 5.0721402 -0.315961 4294967295
-4.2485299 3.6995101 -0.208754 4294967295
-4.2737498 4.1291399 -0.102298 4294967295
-4.2118702 4.119 -0.208754 4294967295
-4.1312099 4.10817 -0.31521699 4294967295
-4.3459902 2.6825099 -0.2088 4294967295
-4.3506999 3.19538 -0.102298 4294967295
-4.3056898 3.19678 -0.2088 4294967295
-4.2438202 3.18663 -0.31525701 4294967295
-3.48947 6.17661 -0.46616501 4294967295
-3.4716301 6.3624001 -0.320106 4294967295
-3.3870499 6.2156 -0.46647999 4294967295
-3.2069199 6.1382699 -0.60765201 4294967295
-3.2069199 6.2594099 -0.46242899 4294967295
-3.7576301 5.5620198 -0.460596 4294967295
-3.62097 5.9150701 -0.462143 4294967295
-3.5363901 5.76827 -0.60851699 4294967295
-3.9628401 4.5251799 -0.464499 4294967295
-3.84864 5.0703502 -0.46523699 4294967295
-3.7588899 5.0150599 -0.60913497 4294967295
-4.0901098 3.68238 -0.46449199 4294967295
-4.0346699 4.1011901 -0.46449801 4294967295
-3.9217401 4.0994 -0.61377501 4294967295
-4.2320299 2.6668301 -0.46454 4294967295
-4.17486 3.16956 -0.46449399 4294967295
-4.07832 3.16258 -0.61377501 4294967295
-3.3638999 5.9836302 -0.727642 4294967295
-3.3273101 6.0838299 -0.61315697 4294967295
-3.28632 6.0376501 -0.72825998 4294967295
-3.4954 5.7220898 -0.72362 4294967295
-3.2056401 6.08987 -0.73075902 4294967295
-3.24224 5.9896698 -0.84524399 4294967295
-3.77952 4.5037599 -0.733715 4294967295
-3.6885099 4.99543 -0.729074 4294967295
-3.59058 5.4635901 -0.73022902 4294967295
-3.6112101 4.9522901 -0.85480899 4294967295
-3.92313 3.6043601 -0.73377103 4294967295
-3.8513 4.0283399 -0.73377103 4294967295
-3.78091 4.0087199 -0.85371101 4294967295
-4.10674 2.6284001 -0.73371899 4294967295
-4.0219898 3.1412301 -0.73371798 4294967295
-3.95155 3.0701699 -0.85371399 4294967295
-3.4156001 5.4204402 -1.18953 4294967295
-3.4181001 5.6789498 -0.84935498 4294967295
-3.32041 5.6789398 -1.18292 4294967295
-3.6076 4.4840899 -1.18961 4294967295
-3.50968 4.95224 -1.19076 4294967295
-3.4119899 4.95224 -1.52433 4294967295
-3.7608399 3.5332799 -1.1864901 4294967295
-3.68906 4.0086899 -1.18643 4294967295
-3.5875299 4.0086398 -1.52239 4294967295
-3.6182001 3.53317 -1.74217 4294967295
-3.5367401 4.0085702 -1.74534 4294967295
-3.4479301 4.4839902 -1.75752 4294967295
-3.47861 4.0085201 -1.9773 4294967295
-3.95735 2.5750999 -1.16983 4294967295
-3.8585 3.0382299 -1.16989 4294967295
-3.7666399 3.0381999 -1.50261 4294967295
-3.7902701 2.5097001 -1.72724 4294967295
-3.69261 3.00474 -1.74385 4294967295
-3.64182 3.0046599 -1.9668 4294967295
-3.3645101 3.5330999 -2.02652 4294967295
-3.2757001 4.0085201 -2.0387001 4294967295
-3.2757001 4.4839301 -2.0392001 4294967295
-3.43891 2.4609101 -2.0292699 4294967295
-3.3645101 2.9893401 -2.02759 4294967295
-4.4365802 1.55537 -0.208803 4294967295
-4.4310699 2.12099 -0.102298 4294967295
-4.3965101 2.11549 -0.208803 4294967295
-4.3515 2.1168799 -0.31530499 4294967295
-4.3604202 1.51976 -0.46454099 4294967295
-4.3098998 2.0867701 -0.46453801 4294967295
-4.2409501 2.0697 -0.61377501 4294967295
-4.2751899 1.48294 -0.73362797 4294967295
-4.19732 2.06299 -0.73363 4294967295
-4.1409798 2.04163 -0.85357201 4294967295
-4.1505799 1.46378 -1.16548 4294967295
-4.06001 2.0291901 -1.16557 4294967295
-3.9669499 1.99725 -1.48174 4294967295
-3.9786799 1.4048001 -1.71106 4294967295
-3.87603 1.95072 -1.71533 4294967295
-3.802 1.91725 -1.95656 4294967295
-3.5246799 1.34115 -2.02191 4294967295
-3.43891 1.90013 -2.0338199 4294967295
-4.52911 0.28496099 -0.20888899 4294967295
-4.5149102 0.93740201 -0.102298 4294967295
-4.4853401 0.90843099 -0.20888899 4294967295
-4.4507799 0.90292501 -0.31539401 4294967295
-4.4638801 0.217399 -0.464627 4294967295
-4.4151201 0.86433601 -0.46454099 4294967295
-4.3735099 0.83422899 -0.613774 4294967295
-4.40101 0.144885 -0.733688 4294967295
-4.3463101 0.800304 -0.733688 4294967295
-4.30268 0.79359102 -0.85354298 4294967295
-4.32864 0.049633801 -1.16354 4294967295
-4.2575202 0.73226398 -1.16348 4294967295
-4.1765399 0.71982002 -1.47548 4294967295
-4.1789498 -0.077742703 -1.7060699 4294967295
-4.07201 0.65377003 -1.70807 4294967295
-3.9810901 0.60724199 -1.94166 4294967295
-3.61801 -0.143298 -2.0246301 4294967295
-3.5246799 0.60773599 -2.0276201 4294967295
-3.67942 -1.59979 -2.0293601 4294967295
-4.1358299 -0.86331397 -1.9349 4294967295
-3.61801 -0.88027298 -2.0331199 4294967295
-4.2877998 -1.56648 -1.7009799 4294967295
-4.3309202 -0.78091002 -1.47215 4294967295
-4.2403598 -0.79726398 -1.70231 4294967295
-4.4717398 -1.5375201 -1.1621701 4294967295
-4.46946 -0.706981 -0.85355598 4294967295
-4.37609 -0.71958297 -1.16221 4294967295
-4.5334401 -2.8852401 -1.14431 4294967295
-4.5731401 -1.95034 -0.83932501 4294967295
-4.5254102 -2.45982 -1.1585 4294967295
-4.4320402 -2.47242 -1.46715 4294967295
-4.3807502 -3.43325 -1.6968 4294967295
-4.3270798 -2.5109601 -1.70047 4294967295
-4.2365098 -2.5273099 -1.93062 4294967295
-3.7186899 -3.4900501 -2.0443399 4294967295
-3.67942 -2.5455799 -2.0448501 4294967295
-4.5275302 -3.813 -1.1533999 4294967295
-4.5729299 -3.5483501 -0.85349 4294967295
-4.5211501 -3.5732801 -1.15341 4294967295
-4.5261302 -3.35167 -1.1584899 4294967295
-4.4807301 -3.6163199 -1.4584 4294967295
-4.3459902 -3.85532 -1.6962 4294967295
-4.3509698 -3.6337099 -1.70128 4294967295
-4.2460098 -3.67225 -1.93459 4294967295
-3.68891 -3.8757501 -2.04829 4294967295
-3.7186899 -3.6752801 -2.0438099 4294967295
-3.7253499 -6.1297402 -1.97386 4294967295
-4.2526698 -4.9823699 -1.88943 4294967295
-3.68891 -5.0200801 -2.02351 4294967295
-3.72013 -6.6019602 -1.9592201 4294967295
-4.2838802 -6.3294301 -1.8298301 4294967295
-3.7253499 -6.3645601 -1.96918 4294967295
-4.3885298 -6.0848999 -1.63232 4294967295
-4.4818602 -4.95785 -1.43909 4294967295
-4.3824301 -4.9649801 -1.64656 4294967295
-4.5394802 -6.05548 -1.13915 4294967295
-4.5851498 -4.9106302 -0.853468 4294967295
-4.5336399 -4.93292 -1.1391701 4294967295
-4.5341802 -6.5444298 -1.1284 4294967295
-4.58639 -6.27946 -0.85342801 4294967295
-4.5387802 -6.2981501 -1.12842 4294967295
-4.4872699 -6.3204398 -1.41412 4294967295
-4.3826199 -6.56497 -1.61163 4294967295
-4.3833199 -6.3223 -1.62236 4294967295
-4.49998 -8.0463696 -1.10824 4294967295
-4.5609198 -7.2771401 -0.85334301 4294967295
-4.5208602 -7.29497 -1.10831 4294967295
-4.4732499 -7.3136601 -1.3832999 4294967295
-4.3408899 -8.0552101 -1.56666 4294967295
-4.3542199 -7.3046598 -1.58674 4294967295
-4.2502599 -7.30652 -1.79498 4294967295
-3.69173 -8.0918198 -1.90351 4294967295
-3.72013 -7.3521299 -1.92839 4294967295
-4.44625 -10.3816 -1.0133899 4294967295
-4.5268898 -9.05546 -0.85324299 4294967295
-4.4594002 -9.35464 -1.01343 4294967295
-4.4193301 -9.3724699 -1.2683901 4294967295
-4.2344098 -10.668 -1.37104 4294967295
-4.2749901 -9.3597603 -1.46586 4294967295
-4.1559701 -9.3507605 -1.66931 4294967295
-3.6258299 -10.6654 -1.73476 4294967295
-3.69173 -9.3608799 -1.83555 4294967295
-4.3832898 -11.4077 -0.989088 4294967295
-4.4591999 -11.028 -0.853046 4294967295
-4.41153 -11.0387 -0.989178 4294967295
-4.4330902 -10.6699 -1.01335 4294967295
-4.3571801 -11.0496 -1.1494 4294967295
-4.1749201 -11.4291 -1.32131 4294967295
-4.1964898 -11.0603 -1.34549 4294967295
-4.0521498 -11.0476 -1.54296 4294967295
-3.5879099 -11.4376 -1.67647 4294967295
-3.6258299 -11.0453 -1.70202 4294967295
-4.2326498 -13.1577 -0.88484001 4294967295
-4.34905 -12.2706 -0.85274702 4294967295
-4.31457 -12.284 -0.88504899 4294967295
-4.26689 -12.2947 -1.02118 4294967295
-4.0430298 -13.1906 -1.03616 4294967295
-4.1117501 -12.3143 -1.1402 4294967295
-3.9510601 -12.325 -1.33629 4294967295
-3.52474 -13.2295 -1.3123699 4294967295
-3.5879099 -12.3443 -1.49348 4294967295
-4.1642299 -13.8262 -0.85799003 4294967295
-4.2318702 -13.4848 -0.85247701 4294967295
-4.1995001 -13.4856 -0.85804999 4294967295
-4.16501 -13.499 -0.89035201 4294967295
-4.00318 -13.8564 -0.965469 4294967295
-4.0363302 -13.5284 -0.99225903 4294967295
-3.8812001 -13.548 -1.11128 4294967295
-3.51805 -13.8912 -1.18845 4294967295
-3.52474 -13.5534 -1.23235 4294967295
-4.1420398 -14.4908 -0.64094597 4294967295
-4.1445398 -14.4719 -0.431036 4294967295
-4.1991 -13.8065 -0.64250797 4294967295
-4.04321 -15.1508 -0.64123201 4294967295
-4.0977702 -14.4854 -0.85270298 4294967295
-4.0654001 -14.4862 -0.85827601 4294967295
-3.92171 -15.132 -0.915959 4294967295
-3.9881699 -14.4728 -0.92124599 4294967295
-3.8594899 -14.5022 -1.02315 4294967295
-3.5030401 -15.1255 -1.09835 4294967295
-3.51805 -14.5091 -1.14258 4294967295
-3.58026 -15.1617 -0.85172498 4294967295
-3.5030401 -15.1482 -0.91469502 4294967295
-3.6245301 -15.1744 -0.429993 4294967295
-3.58026 -15.169 -0.64174998 4294967295
-3.3736501 6.7284498 -0.102344 4294967295
-3.3094699 6.2696199 -0.467098 4294967295
-3.24226 5.87218 -1.18619 4294967295
-3.27776 5.5170598 -1.52473 4294967295
-3.2802601 5.7755599 -1.1845599 4294967295
-4.2122898 -6.5257401 -0.85340798 4294967295
-4.1914201 -7.2771401 -0.85334301 4294967295
-4.1705499 -8.0285397 -0.85327899 4294967295
-3.8219199 -7.2771401 -0.85334301 4294967295
-4.11795 -10.659 -0.853136 4294967295
-3.77475 -9.3437901 -0.85320699 4294967295
-4.1442399 -9.3437901 -0.85320699 4294967295
-4.1573901 -9.05546 -0.85324299 4294967295
-4.5005898 -10.3707 -0.85317099 4294967295
-4.0897102 -11.028 -0.853046 4294967295
-4.06147 -11.397 -0.852956 4294967295
-3.7202201 -11.028 -0.853046 4294967295
-3.9795599 -12.2706 -0.85274702 4294967295
-3.89764 -13.1443 -0.85253799 4294967295
-3.61006 -12.2706 -0.85274702 4294967295
-4.2214799 -6.0331802 -0.85344899 4294967295
-4.2168899 -6.27946 -0.85342801 4294967295
-3.8473899 -6.27946 -0.85342801 4294967295
-4.2746902 -6.0331802 -0.19527 4294967295
-4.61759 -6.0331802 -0.52436 4294967295
-4.2480898 -6.0331802 -0.52436 4294967295
-3.8785901 -6.0331802 -0.52436 4294967295
-3.8271101 -13.8254 -0.85241699 4294967295
-3.4928801 -13.4848 -0.85247701 4294967295
-3.86238 -13.4848 -0.85247701 4294967295
-3.8320999 -13.7877 -0.43259799 4294967295
-3.8296001 -13.8065 -0.64250797 4294967295
-3.4600999 -13.8065 -0.64250797 4294967295
-3.4953699 -13.466 -0.64256799 4294967295
-3.5772901 -12.5923 -0.64277703 4294967295
-3.8739901 -6.27946 -0.52433902 4294967295
-3.8531201 -7.0308599 -0.169092 4294967295
-3.8219199 -7.2771401 -0.49816099 4294967295
-3.8010499 -8.0285397 -0.49809599 4294967295
-3.77475 -9.3437901 -0.14284199 4294967295
-3.77475 -9.3437901 -0.49802399 4294967295
-3.74845 -10.659 -0.497953 4294967295
-3.7202201 -11.028 -0.49786299 4294967295
-3.60553 -12.2234 -0.28768399 4294967295
-4.5812001 -1.94025 -0.66419297 4294967295
-4.5612998 -2.00177 -0.46919 4294967295
-4.5452099 -1.58644 -0.65850699 4294967295
-4.4767599 -0.73457801 -0.53863901 4294967295
-4.5124202 -0.69598901 -0.38949201 4294967295
-4.6045098 -3.07183 -0.49962899 4294967295
-4.6279202 -3.78807 -0.35982701 4294967295
-4.6207099 -3.07183 -0.33507499 4294967295
-4.5447998 -0.688609 -0.25936499 4294967295
-4.5743699 -0.65963799 -0.15277401 4294967295
-4.5576801 -1.64059 -0.333377 4294967295
-4.4966602 -0.67305601 -0.73364198 4294967295
-4.5577202 -2.00244 -0.30043101 4294967295
-4.5900898 -1.99506 -0.170304 4294967295
-4.5802398 -3.0819199 -0.83931297 4294967295
-4.59551 -3.78807 -0.68893403 4294967295
-4.5964499 -3.0819199 -0.674761 4294967295
-4.6013498 -4.9106302 -0.68891501 4294967295
-4.6279602 -4.9106302 -0.359826 4294967295
-4.6441598 -4.9106302 -0.195272 4294967295
-4.5937099 -2.35624 -0.30611801 4294967295
-4.5892401 -2.36567 -0.65000802 4294967295
-4.6171298 -3.07249 -0.166316 4294967295
-4.5722098 -2.6565001 -0.85349798 4294967295
-4.6117501 -4.9106302 -0.524378 4294967295
-4.5738602 -2.8422 -0.83931702 4294967295
-3.6245301 -13.2958 -1.1325001 4294967295
-3.6816001 -12.6115 -1.13406 4294967295
-3.1612401 -13.8965 -1.75704 4294967295
-3.15329 -13.8965 -1.53328 4294967295
-3.15329 -12.6659 -1.79628 4294967295
-3.15329 -13.5727 -1.6133 4294967295
-4.1311002 -10.3707 -0.85317099 4294967295
-2.08882 -13.466 -0.64256799 4294967295
-2.0069001 -12.5923 -0.64277703 4294967295
-1.90546 -10.7387 -0.62377399 4294967295
-2.0201399 -11.934 -0.41359499 4294967295
-1.90546 -10.7387 -0.852956 4294967295
-1.9187 -10.0804 -0.62377399 4294967295
-3.13836 5.5791101 -2.0213301 4294967295
-3.1615601 5.6640701 -2.05529 4294967295
-3.13835 5.6618199 -2.01651 4294967295
-3.1189201 5.4204402 -2.02543 4294967295
-3.1615901 5.5008998 -2.0638199 4294967295
-3.1189001 5.5008998 -2.0217199 4294967295
-3.1996 5.71029 -1.528 4294967295
-3.09569 5.4986501 -1.98294 4294967295
-3.06022 5.4986501 -1.75282 4294967295
-3.1270299 5.63694 -1.98186 4294967295
-3.1502299 5.7219 -2.01582 4294967295
-3.16151 5.7514801 -2.0157299 4294967295
-3.1501999 5.7266002 -1.9810801 4294967295
-3.1995399 5.6849298 -1.75368 4294967295
-3.25109 5.5587301 -1.75213 4294967295
-3.2109399 5.6553502 -1.75377 4294967295
-3.3538499 4.9521899 -1.75629 4294967295
-3.2824399 5.4204402 -1.7532099 4294967295
-3.3183801 4.9521899 -1.98641 4294967295
-3.2757001 4.9521899 -2.0285001 4294967295
-3.1848099 5.5791101 -2.0213301 4294967295
-3.1847999 5.6618199 -2.01651 4294967295
-3.2042799 5.4204402 -2.02543 4294967295
-3.2042699 5.5008998 -2.0217199 4294967295
-3.22751 5.4986501 -1.98294 4294967295
-3.26298 5.4986501 -1.75282 4294967295
-3.1961701 5.63694 -1.98186 4294967295
-3.17291 5.7219 -2.01582 4294967295
-3.1728799 5.7266002 -1.9810801 4294967295
-2.95398 6.4014001 -0.32042 4294967295
-3.1641099 6.38096 -0.31108299 4294967295
-2.7375 6.7291298 -0.102341 4294967295
-2.4349699 6.7303801 -0.10231 4294967295
-2.26353 5.8165698 -0.102308 4294967295
-2.4758301 5.61731 -0.316697 4294967295
-2.74913 6.3234 -0.31979001 4294967295
-2.0861001 4.5486398 -0.102297 4294967295
-2.2474201 4.5269699 -0.31522101 4294967295
-2.01279 3.70965 -0.102297 4294967295
-2.1365399 3.6893599 -0.31521001 4294967295
-1.9321899 2.6811099 -0.102297 4294967295
-2.0222001 2.6839001 -0.315301 4294967295
-2.9182999 6.02981 -0.61253798 4294967295
-3.0734701 6.1378598 -0.61377299 4294967295
-3.1641099 6.13869 -0.60153002 4294967295
-2.6553199 5.5067401 -0.60449201 4294967295
-2.47329 4.5233898 -0.613774 4294967295
-2.3296199 3.67541 -0.61377198 4294967295
-2.16011 2.64976 -0.61377603 4294967295
-3.00529 5.9374499 -0.84274399 4294967295
-3.1615601 6.0418901 -0.84774202 4294967295
-2.6140599 4.4841299 -0.853652 4294967295
-2.8099101 5.4204402 -0.852198 4294967295
-2.4705 3.5332999 -0.85376602 4294967295
-2.2727799 2.6070399 -0.85365999 4294967295
-3.00529 5.4204402 -1.5231 4294967295
-2.8171301 4.4840398 -1.52556 4294967295
-3.1614799 5.7561798 -1.9809901 4294967295
-3.1616001 5.80691 -1.52964 4294967295
-3.0855899 5.6136699 -1.52637 4294967295
-3.1389201 5.6970201 -1.9811701 4294967295
-2.9333999 4.4839401 -1.98948 4294967295
-3.07623 5.4204402 -1.98333 4294967295
-2.6542201 3.5332501 -1.51921 4294967295
-2.75578 3.5330999 -1.96512 4294967295
-2.45889 2.54316 -1.4859999 4294967295
-2.6069601 2.4762299 -1.96847 4294967295
-3.1616001 5.4204402 -2.0675199 4294967295
-3.1616001 4.4839301 -2.0889201 4294967295
-3.1616001 3.5330999 -2.08792 4294967295
-3.1616001 2.44559 -2.09006 4294967295
-1.8520499 1.5608701 -0.102297 4294967295
-1.92117 1.54986 -0.315308 4294967295
-2.00438 1.48965 -0.61377198 4294967295
-2.09163 1.47622 -0.85348201 4294967295
-2.2535801 1.4513299 -1.4774801 4294967295
-2.43543 1.3582799 -1.9446501 4294967295
-3.1616001 1.32402 -2.09917 4294967295
-1.76451 0.313932 -0.102297 4294967295
-1.82365 0.25599 -0.31547901 4294967295
-1.89498 0.17881 -0.61377299 4294967295
-1.94938 0.11096 -0.85360199 4294967295
-2.03971 -0.0116926 -1.47348 4294967295
-2.24877 -0.143792 -1.93866 4294967295
-3.1616001 -0.142804 -2.11059 4294967295
-2.1259501 -1.58283 -1.9311301 4294967295
-3.1616001 -1.61675 -2.1275799 4294967295
-1.94482 -1.55013 -1.47082 4294967295
-1.75808 -1.52492 -0.85350901 4294967295
-1.75665 -3.30863 -0.85349399 4294967295
-1.8374799 -3.3947201 -1.46348 4294967295
-2.0474 -3.4717901 -1.93011 4294967295
-3.1615901 -3.5083201 -2.15856 4294967295
-1.74388 -3.78807 -0.85348499 4294967295
-1.84744 -3.83793 -1.45332 4294967295
-2.10695 -3.87271 -1.93907 4294967295
-3.1615901 -3.8787799 -2.1575201 4294967295
-2.03409 -6.09201 -1.83979 4294967295
-3.1615901 -6.16745 -2.10794 4294967295
-2.0445199 -6.5668502 -1.81986 4294967295
-3.1615901 -6.6370902 -2.0985799 4294967295
-1.83522 -6.0777702 -1.42485 4294967295
-1.7322 -6.0331802 -0.85344797 4294967295
-1.74139 -6.5257401 -0.85340798 4294967295
-1.83662 -6.5631099 -1.40339 4294967295
-1.7831399 -8.0285397 -0.85327798 4294967295
-1.86327 -8.0642004 -1.36321 4294967295
-2.10132 -8.0462103 -1.7701 4294967295
-3.1615901 -8.1374302 -2.0369101 4294967295
-1.9187 -10.0804 -0.852956 4294967295
-1.85022 -10.659 -0.85313702 4294967295
-1.94444 -10.6807 -1.17357 4294967295
-2.23312 -10.6553 -1.5685199 4294967295
-3.1615901 -10.6755 -1.90101 4294967295
-1.89222 -11.397 -0.85295701 4294967295
-1.98757 -11.4184 -1.1252199 4294967295
-2.30896 -11.4399 -1.51741 4294967295
-3.1615901 -11.4354 -1.83553 4294967295
-2.0560501 -13.1443 -0.85253799 4294967295
-2.12502 -13.1711 -0.91714197 4294967295
-2.4353001 -13.2102 -1.15518 4294967295
-3.1615901 -13.2488 -1.46956 4294967295
-2.12657 -13.8254 -0.85241699 4294967295
-2.19133 -13.827 -0.86356199 4294967295
-2.4486899 -13.8858 -1.06738 4294967295
-3.1615901 -13.8966 -1.30952 4294967295
-2.1215899 -13.7877 -0.43259799 4294967295
-2.2357099 -15.1562 -0.42947501 4294967295
-2.32426 -15.1454 -0.85298997 4294967295
-2.4787099 -15.1186 -0.97892898 4294967295
-3.1615901 -15.1325 -1.21778 4294967295
-3.1615901 -15.1779 -0.85046202 4294967295
-3.1615901 -15.1926 -0.430511 4294967295
-3.1616001 6.7277699 -0.102345 4294967295
-0.63284099 -3.78807 -0.19030499 4294967295
-0.63283998 -6.0331802 -0.190303 4294967295
-1.67906 -3.78807 -0.195272 4294967295
-1.67899 -6.0331802 -0.19527 4294967295
-2.7203801 0.11096 -0.85360199 4294967295
-2.6659801 0.17881 -0.61377299 4294967295
-2.59466 0.25598899 -0.31547901 4294967295
-2.5355101 0.313932 -0.102297 4294967295
-2.5290899 -1.52492 -0.85350901 4294967295
-2.5276401 -3.30863 -0.85349399 4294967295
-2.5148799 -3.78807 -0.85348499 4294967295
-2.4484601 -3.7899899 -0.098755799 4294967295
-2.4500599 -3.78807 -0.195272 4294967295
-2.4803901 -6.5257502 -0.85340798 4294967295
-2.52214 -8.0285397 -0.85327798 4294967295
-2.5747499 -10.659 -0.85313702 4294967295
-2.6312201 -11.397 -0.85295701 4294967295
-2.7950499 -13.1443 -0.85253799 4294967295
-2.4712 -6.0331802 -0.85344797 4294967295
-2.41799 -6.0331802 -0.19527 4294967295
-2.8655701 -13.8254 -0.85241699 4294967295
-2.86059 -13.7877 -0.43259799 4294967295
-2.52214 -8.0285397 -0.142914 4294967295
-2.5747499 -10.659 -0.14276899 4294967295
-3.17748 -13.8965 -1.75704 4294967295
-3.58571 6.7291298 -0.102342 4294967295
-3.36921 6.4013901 -0.32042101 4294967295
-3.8882201 6.7303801 -0.102311 4294967295
-3.8473699 5.61731 -0.31669801 4294967295
-4.05966 5.8165698 -0.102309 4294967295
-3.57406 6.3234 -0.31979099 4294967295
-4.0757699 4.5269699 -0.31522301 4294967295
-4.2370901 4.5486302 -0.102298 4294967295
-4.1866498 3.6893599 -0.315211 4294967295
-4.3104 3.70965 -0.102298 4294967295
-4.3009901 2.6839001 -0.315303 4294967295
-4.3909998 2.6811099 -0.102298 4294967295
-3.4048901 6.02981 -0.61253899 4294967295
-3.2497201 6.1378498 -0.61377501 4294967295
-3.6678801 5.5067301 -0.60449398 4294967295
-3.8499 4.5233798 -0.61377501 4294967295
-3.9935701 3.67541 -0.613774 4294967295
-4.1630802 2.64976 -0.61377698 4294967295
-3.3229101 5.9374499 -0.84274602 4294967295
-3.70913 4.4841299 -0.85365403 4294967295
-3.5132799 5.4204402 -0.85596502 4294967295
-3.85269 3.5332999 -0.85376799 4294967295
-4.0504098 2.6070399 -0.853661 4294967295
-3.31791 5.4204402 -1.5231 4294967295
-3.5060699 4.4840398 -1.52556 4294967295
-3.6689799 3.5332501 -1.51921 4294967295
-3.56742 3.5330999 -1.96512 4294967295
-3.3898001 4.4839401 -1.98948 4294967295
-3.8643 2.54316 -1.48601 4294967295
-3.7162299 2.4762299 -1.96848 4294967295
-4.40202 1.54986 -0.315308 4294967295
-4.4711399 1.5608701 -0.102298 4294967295
-4.31881 1.48965 -0.61377299 4294967295
-4.2315602 1.47622 -0.85348302 4294967295
-4.0696101 1.4513299 -1.4774801 4294967295
-3.8877599 1.3582799 -1.9446501 4294967295
-4.4995399 0.25598899 -0.31547999 4294967295
-4.5586801 0.31393099 -0.102298 4294967295
-4.4282198 0.17881 -0.613774 4294967295
-4.3738098 0.11096 -0.85360301 4294967295
-4.2834802 -0.0116931 -1.47348 4294967295
-4.07442 -0.143792 -1.93866 4294967295
-4.1972399 -1.58284 -1.9311301 4294967295
-4.3783698 -1.55013 -1.47082 4294967295
-4.5651002 -1.52492 -0.85351002 4294967295
-4.4857101 -3.3947201 -1.46348 4294967295
-4.5811801 -2.3757601 -0.82514 4294967295
-4.2757902 -3.4717901 -1.93011 4294967295
-4.47575 -3.83793 -1.45332 4294967295
-4.5793099 -3.78807 -0.853486 4294967295
-4.5665498 -3.30863 -0.853495 4294967295
-4.2162299 -3.87271 -1.93907 4294967295
-4.2891002 -6.0920401 -1.83979 4294967295
-4.2786598 -6.5668302 -1.81986 4294967295
-4.4879699 -6.0777702 -1.42485 4294967295
-4.5909801 -6.0331802 -0.85344899 4294967295
-4.4865699 -6.5631099 -1.40339 4294967295
-4.58179 -6.5257502 -0.85340798 4294967295
-4.4599199 -8.0642004 -1.36321 4294967295
-4.54005 -8.0285397 -0.85327899 4294967295
-4.2218699 -8.0462103 -1.7701 4294967295
-4.3787498 -10.6807 -1.17357 4294967295
-4.5137401 -10.0824 -0.85320598 4294967295
-4.0900698 -10.6553 -1.5685199 4294967295
-4.3356099 -11.4184 -1.1252199 4294967295
-4.4309702 -11.397 -0.852956 4294967295
-4.4874401 -10.659 -0.853136 4294967295
