# .PCD v0.7 - Point Cloud Data file format
VERSION 0.7
FIELDS x y z rgba
SIZE 4 4 4 4
TYPE F F F U
COUNT 1 1 1 1
WIDTH 1075
HEIGHT 1
VIEWPOINT 0 0 0 1 0 0 0
POINTS 1075
DATA ascii
-4.0271096 -11.241014 -1.6679885 4294967295
-3.8699591 -11.859391 -1.5910057 4294967295
-3.762105 -11.241007 -1.6397628 4294967295
-3.9540401 -11.74791 -1.6243324 4294967295
-3.9235306 -11.088127 -1.6548635 4294967295
-3.909399 -11.786036 -1.5175217 4294967295
-3.8987706 -11.194472 -1.5035043 4294967295
-3.932451 -11.760815 -1.4951824 4294967295
-3.8574207 -11.004831 -1.6718304 4294967295
-3.8363113 -11.70342 -1.4774542 4294967295
-3.9065545 -11.140521 -1.6216187 4294967295
-3.8120375 -11.854632 -1.6689892 4294967295
-4.0728869 -11.143691 -1.385314 4294967295
-3.9082773 -11.764084 -1.6881089 4294967295
-4.0176826 -11.196304 -1.5548477 4294967295
-3.9156353 -11.750803 -1.6905769 4294967295
-3.9763186 -11.175463 -1.5681064 4294967295
-3.9178753 -11.680237 -1.5732018 4294967295
-3.8786957 -11.164666 -1.4292216 4294967295
-3.8968873 -11.525803 -1.5363039 4294967295
-4.1562181 -10.997214 -1.6727128 4294967295
-3.9495351 -11.800908 -1.5766177 4294967295
-3.8197522 -11.106755 -1.5201017 4294967295
-3.9285111 -11.906122 -1.4739698 4294967295
-3.7665386 -11.124729 -1.5642356 4294967295
-3.8652411 -11.825367 -1.4978451 4294967295
-4.0161734 -11.056093 -1.6433982 4294967295
-3.8751621 -11.879225 -1.6559814 4294967295
-3.8761318 -11.058028 -1.5591074 4294967295
-3.8038695 -11.691413 -1.6395552 4294967295
-3.9572051 -11.219775 -1.6634374 4294967295
-4.1099224 -11.815594 -1.3631334 4294967295
-3.9570601 -11.656868 -1.555975 4294967295
-3.9620001 -11.736363 -1.628091 4294967295
-4.0440555 -11.753581 -1.5388166 4294967295
-3.8528082 -11.717255 -1.4437897 4294967295
-3.9068534 -11.644315 -1.6207463 4294967295
-3.6973026 -11.776961 -1.349772 4294967295
-4.0538807 -11.730584 -1.445797 4294967295
-3.9993024 -11.67871 -1.6074033 4294967295
-3.9273672 -11.663446 -1.8065281 4294967295
-3.7915692 -11.697185 -1.4028559 4294967295
-3.7618151 -11.875598 -1.7442211 4294967295
-3.9025216 -11.864657 -1.5292317 4294967295
-3.8984628 -11.570392 -1.6408641 4294967295
-3.8687949 -11.655152 -1.7223538 4294967295
-3.8718345 -11.957573 -1.6933538 4294967295
-3.8183546 -11.931808 -1.4709411 4294967295
-3.9044681 -11.775971 -1.6121273 4294967295
-3.923954 -11.717729 -1.3861799 4294967295
-3.8241622 -11.672108 -1.6365449 4294967295
-3.9598053 -11.63286 -1.6792145 4294967295
-3.9486604 -11.661275 -1.5946093 4294967295
-3.8564909 -11.79087 -1.7456038 4294967295
-3.8012383 -11.832387 -1.4629015 4294967295
-3.9708629 -11.689999 -1.6005073 4294967295
-4.072598 -11.542945 -1.5709271 4294967295
-3.9993699 -11.953866 -1.6537919 4294967295
-4.0770907 -11.87785 -1.6065017 4294967295
-3.8699062 -11.79133 -1.6309594 4294967295
-4.0330114 -11.656257 -1.4191079 4294967295
-3.8878589 -11.567146 -1.4961286 4294967295
-4.072309 -11.859852 -1.6064371 4294967295
-2.7196043 -11.881717 -1.6942438 4294967295
-2.6612821 -12.018172 -1.470939 4294967295
-2.9015937 -11.278182 -1.830955 4294967295
-2.8483298 -11.290893 -1.6357616 4294967295
-2.8790224 -11.835762 -1.6884551 4294967295
-2.5948107 -11.304004 -1.7558409 4294967295
-2.8501086 -11.856721 -1.6110748 4294967295
-2.8708146 -11.226304 -1.7048334 4294967295
-2.8825493 -11.806933 -1.6422889 4294967295
-2.7225487 -11.255177 -1.5365523 4294967295
-2.7614636 -11.928946 -1.7098187 4294967295
-2.7679076 -11.302052 -1.6841714 4294967295
-2.730504 -11.846373 -1.7903148 4294967295
-2.8893702 -11.040069 -1.5103981 4294967295
-2.7895539 -12.040482 -1.8153768 4294967295
-2.8824878 -11.414103 -1.4625101 4294967295
-2.8492708 -11.935284 -1.6934339 4294967295
-2.7175899 -11.373804 -1.7100213 4294967295
-2.5577753 -11.753777 -1.9020522 4294967295
-2.7399266 -11.34642 -1.6752846 4294967295
-2.7893476 -11.899844 -1.8058846 4294967295
-2.6825876 -11.15031 -1.7123698 4294967295
-2.7501545 -11.821348 -1.8056809 4294967295
-2.6864462 -11.227371 -1.7376412 4294967295
-2.6654978 -11.921767 -1.7134005 4294967295
-2.8212152 -11.153622 -1.6942902 4294967295
-2.984066 -11.916757 -1.7757969 4294967295
-2.7574024 -11.384025 -1.6767471 4294967295
-2.9203529 -11.845213 -1.5732511 4294967295
-2.7990899 -11.226371 -1.7073642 4294967295
-2.8142302 -11.902349 -1.6575918 4294967295
-2.8196929 -11.06261 -1.6471461 4294967295
-2.7860074 -11.824234 -1.678326 4294967295
-2.7085466 -11.189511 -1.8170407 4294967295
-2.6871092 -12.006939 -1.6753498 4294967295
-2.7048428 -11.153951 -1.8610975 4294967295
-2.8721669 -11.30345 -1.526546 4294967295
-2.8187642 -11.81416 -1.8776768 4294967295
-2.6514454 -11.33985 -1.6553181 4294967295
-2.7567081 -12.021138 -1.7956406 4294967295
-2.7929683 -11.357992 -1.7562944 4294967295
-2.7078784 -11.981656 -1.7508303 4294967295
-2.7905049 -11.109354 -1.5777476 4294967295
-2.8268297 -12.036752 -1.6582882 4294967295
-2.6318777 -11.289277 -1.7142019 4294967295
-2.8940029 -11.836053 -1.8177269 4294967295
-2.6032233 -11.229085 -1.7742361 4294967295
-2.6086848 -11.917575 -1.6183772 4294967295
-2.6634052 -11.207913 -1.8472425 4294967295
-2.7150962 -11.901838 -1.8447037 4294967295
-2.7779388 -11.459363 -1.8056061 4294967295
-2.751364 -11.757609 -1.7070971 4294967295
-2.8116796 -11.239042 -1.6172025 4294967295
-2.6741595 -11.916635 -1.5895572 4294967295
-2.8217878 -11.127522 -1.6890125 4294967295
-2.7937255 -11.80849 -1.6712407 4294967295
-2.8484771 -11.063385 -1.7008774 4294967295
-2.6312337 -11.833463 -1.7911856 4294967295
-2.8137066 -11.364 -1.7092934 4294967295
-2.8428462 -11.74402 -1.6381178 4294967295
-2.6629617 -11.35482 -1.806715 4294967295
-2.7488058 -11.948733 -1.6746373 4294967295
-2.8936799 -11.231841 -1.6345482 4294967295
-2.7299137 -11.772152 -1.7176555 4294967295
-2.5902255 -11.900723 -1.5775808 4294967295
-2.7918465 -11.801072 -1.62617 4294967295
-2.8977208 -11.91837 -1.535545 4294967295
-2.5680737 -11.961287 -1.4579301 4294967295
-2.540679 -12.083808 -1.8901488 4294967295
-2.7832766 -12.058129 -1.5864034 4294967295
-2.7962527 -11.820713 -1.5583711 4294967295
-2.959089 -11.937084 -1.7073959 4294967295
-2.9900918 -11.846013 -1.7227932 4294967295
-2.6913807 -11.710832 -1.6706154 4294967295
-2.6591952 -11.919878 -1.8699988 4294967295
-2.7366714 -11.885908 -1.9780674 4294967295
-2.9416194 -11.885887 -1.6395169 4294967295
-2.825453 -11.93371 -1.8381256 4294967295
-2.6611476 -11.818524 -1.7823912 4294967295
-2.7103462 -11.698055 -1.8078953 4294967295
-2.7353442 -11.811694 -1.7371259 4294967295
-2.6766431 -11.966683 -1.8450389 4294967295
-3.0518901 -11.816992 -1.8036391 4294967295
-2.8995841 -11.901628 -1.8209354 4294967295
-2.6239593 -11.982052 -1.8218428 4294967295
-2.6701233 -11.831458 -1.959186 4294967295
-2.8466792 -12.043639 -1.6444269 4294967295
-2.9058504 -11.725313 -1.5887799 4294967295
-2.7066987 -12.086987 -1.638751 4294967295
-2.764957 -11.860208 -1.6181419 4294967295
-2.6847451 -12.011996 -1.449839 4294967295
-2.7651668 -12.141014 -1.5555584 4294967295
-2.8245819 -12.043818 -1.8440568 4294967295
-2.7090414 -11.76996 -1.7619858 4294967295
-2.8973978 -12.009377 -1.784286 4294967295
-2.8680511 -11.871344 -1.7693701 4294967295
-2.5423057 -11.686623 -1.6825616 4294967295
-2.4113204 -11.666603 -1.6189469 4294967295
-2.6831396 -11.142323 -1.6597806 4294967295
-2.410089 -11.076987 -1.5250341 4294967295
-2.3477955 -11.766189 -1.4172034 4294967295
-2.5553119 -11.167442 -1.5933235 4294967295
-2.3423152 -11.894417 -1.4954708 4294967295
-2.367065 -11.044163 -1.5613878 4294967295
-2.3554976 -11.832109 -1.5832796 4294967295
-2.2310636 -11.106355 -1.5157126 4294967295
-2.2341578 -11.80051 -1.6076807 4294967295
-2.5908883 -11.190355 -1.6194708 4294967295
-2.3906381 -11.720905 -1.7148912 4294967295
-2.4197044 -11.081379 -1.6232644 4294967295
-2.5505884 -11.777168 -1.643348 4294967295
-2.4756269 -11.167329 -1.632339 4294967295
-2.4122415 -11.82816 -1.5465168 4294967295
-2.4897647 -11.249074 -1.6349585 4294967295
-2.3231971 -11.704372 -1.7466741 4294967295
-2.4432621 -11.06869 -1.4109653 4294967295
-2.4519238 -11.817491 -1.4890554 4294967295
-2.414783 -10.987431 -1.5693493 4294967295
-2.4846547 -11.599456 -1.6076725 4294967295
-2.3852975 -11.091611 -1.4830962 4294967295
-2.55669 -11.814442 -1.4328699 4294967295
-2.5533006 -11.071527 -1.5080104 4294967295
-2.6971743 -11.837429 -1.7465593 4294967295
-2.4734516 -11.045856 -1.6551565 4294967295
-2.4482148 -11.876977 -1.8049908 4294967295
-2.3705914 -10.923767 -1.5678946 4294967295
-2.4730999 -11.711099 -1.5657624 4294967295
-2.5078564 -11.10424 -1.5943809 4294967295
-2.1564684 -11.765547 -1.3687268 4294967295
-2.2419302 -11.1005 -1.6912961 4294967295
-2.3620512 -11.898881 -1.663561 4294967295
-2.4060564 -11.266247 -1.6565683 4294967295
-2.4496758 -11.117108 -1.5484103 4294967295
-2.2943542 -11.702177 -1.4996068 4294967295
-2.4248798 -11.097147 -1.6647791 4294967295
-2.1865168 -11.866082 -1.6969409 4294967295
-2.3814209 -11.11913 -1.6350143 4294967295
-2.4145186 -11.768479 -1.6461605 4294967295
-2.1399972 -11.02592 -1.656354 4294967295
-2.3366299 -11.543956 -1.6678874 4294967295
-2.36186 -10.99252 -1.6573225 4294967295
-2.5355847 -11.781805 -1.7656063 4294967295
-2.4306991 -11.126853 -1.5690765 4294967295
-2.3029437 -11.831907 -1.737682 4294967295
-2.3995979 -11.111334 -1.5982364 4294967295
-2.4509492 -11.827343 -1.4821494 4294967295
-2.4145339 -11.155573 -1.7334626 4294967295
-2.3262689 -11.608734 -1.3956547 4294967295
-2.553303 -11.027503 -1.5000069 4294967295
-2.4486794 -11.720386 -1.6659774 4294967295
-2.2969172 -11.29022 -1.645671 4294967295
-2.4462442 -11.715474 -1.6491349 4294967295
-2.4483414 -11.241168 -1.5796609 4294967295
-2.354301 -11.848059 -1.4539104 4294967295
-2.5295246 -11.096307 -1.5496117 4294967295
-2.2888253 -11.773987 -1.6042175 4294967295
-2.3210471 -11.307317 -1.5371304 4294967295
-2.3105755 -11.70216 -1.6757529 4294967295
-2.3623338 -11.317126 -1.6514833 4294967295
-2.1848373 -11.722085 -1.5421084 4294967295
-2.2305412 -11.835084 -1.5248455 4294967295
-2.4050374 -11.895263 -1.7213018 4294967295
-2.3821666 -11.744182 -1.5285422 4294967295
-2.2719691 -11.741875 -1.5296935 4294967295
-2.4940262 -11.752874 -1.6867926 4294967295
-2.5142357 -11.876659 -1.5831043 4294967295
-2.3624091 -11.719198 -1.532536 4294967295
-2.415493 -11.770748 -1.3464335 4294967295
-2.552248 -11.788937 -1.421844 4294967295
-2.5581553 -11.636794 -1.513638 4294967295
-2.2441568 -11.818588 -1.5843858 4294967295
-2.6780634 -11.800807 -1.6105545 4294967295
-2.4700253 -11.856426 -1.5048658 4294967295
-2.2489383 -11.778255 -1.5806069 4294967295
-2.3893754 -11.830334 -1.7261536 4294967295
-2.4328768 -11.797905 -1.6094824 4294967295
-2.3403027 -11.899368 -1.5898992 4294967295
-2.4048541 -11.845287 -1.6649073 4294967295
-2.5674527 -11.795697 -1.6775978 4294967295
-2.3946908 -11.765156 -1.576126 4294967295
-2.3577509 -11.765489 -1.6153103 4294967295
-2.5475855 -11.775786 -1.6517539 4294967295
-2.3217804 -11.831313 -1.4811832 4294967295
-2.5708957 -11.826943 -1.5623174 4294967295
-2.2339869 -11.620958 -1.5679303 4294967295
-2.6124852 -11.748461 -1.5660596 4294967295
-2.377136 -11.840426 -1.6458158 4294967295
-2.3316128 -11.687281 -1.6840427 4294967295
-2.4334099 -11.916537 -1.659713 4294967295
-2.5899541 -11.703402 -1.5431154 4294967295
-2.230165 -11.79258 -1.5501118 4294967295
-2.2732604 -11.702142 -1.6138061 4294967295
-2.6526198 5.2949963 -0.67063159 4294967295
-2.1102321 5.5016098 -0.37725648 4294967295
-2.4078639 5.3438067 -0.46805149 4294967295
-2.5093229 5.599535 -0.53723401 4294967295
-2.4929733 5.7180171 -0.47073063 4294967295
-2.459254 5.5724802 -0.547409 4294967295
-2.4377835 5.544323 -0.72740138 4294967295
-2.541698 5.4084821 -0.53957659 4294967295
-2.517035 5.6241159 -0.56375217 4294967295
-2.6298115 5.6088972 -0.51146138 4294967295
-2.7178924 5.5625892 -0.86269152 4294967295
-2.6013837 5.5119267 -0.74440217 4294967295
-2.7720141 5.6676497 -0.72492325 4294967295
-2.7406032 5.6866755 -0.65650541 4294967295
-2.5693293 5.6049862 -0.57729518 4294967295
-2.5838726 5.5888429 -0.79366094 4294967295
-2.5962431 5.089632 -0.82651061 4294967295
-2.531086 5.2358322 -0.88334918 4294967295
-2.6773696 5.3953419 -0.80511856 4294967295
-2.5861423 5.4104376 -0.81403971 4294967295
-2.735189 5.2764006 -0.86587113 4294967295
-2.6676602 5.2775464 -0.72144818 4294967295
-2.4475276 5.3773417 -0.47032291 4294967295
-2.577589 5.2686763 -0.37248906 4294967295
-2.4271257 5.3699961 -0.65101993 4294967295
-2.502841 5.7149296 -0.63833004 4294967295
-2.6445005 5.4277735 -0.44503611 4294967295
-2.4617295 5.5484443 -0.3166171 4294967295
-2.2669127 5.6061797 -0.55317938 4294967295
-2.5413375 5.6667876 -0.86114776 4294967295
-2.7327366 5.5878682 -0.61790985 4294967295
-2.7137892 5.4801707 -0.68861514 4294967295
-2.7288969 5.7086449 -0.74096364 4294967295
-2.6965818 5.5848575 -0.75954461 4294967295
-2.7377002 5.5147605 -0.62753439 4294967295
-2.6766131 5.405406 -0.65371323 4294967295
-2.5232182 5.3468933 -0.59831291 4294967295
-2.750952 5.4645419 -0.68219239 4294967295
-2.6572886 5.4855452 -0.95371604 4294967295
-2.78303 5.3289795 -0.7763254 4294967295
-2.5957077 5.4356761 -0.84605175 4294967295
-2.6635764 5.338737 -0.73965681 4294967295
-2.7424819 5.3778138 -0.70160562 4294967295
-2.2914841 5.2241602 -0.53864926 4294967295
-3.8710241 5.1901641 -0.38990718 4294967295
-3.9955461 5.2698021 -0.53824991 4294967295
-3.7539854 5.4210458 -0.55037826 4294967295
-3.7530413 5.4127302 -0.44751322 4294967295
-3.7872045 5.7745738 -0.54825878 4294967295
-3.7946212 5.7387094 -0.58638149 4294967295
-3.6805227 5.3090477 -0.67152441 4294967295
-3.6586506 5.2352591 -0.74625468 4294967295
-3.6236489 5.6273069 -0.73904574 4294967295
-3.5734756 5.6278591 -0.93558806 4294967295
-3.754873 5.5297513 -0.78455549 4294967295
-3.7067528 5.5442991 -0.81509835 4294967295
-3.6899946 5.4827013 -0.82387477 4294967295
-3.5375106 5.570137 -0.53145099 4294967295
-3.6470749 5.4032912 -0.74026054 4294967295
-3.5525022 5.405365 -0.69354451 4294967295
-3.7116747 5.3393297 -0.59352571 4294967295
-3.5519867 5.3480601 -0.85945833 4294967295
-3.6061864 5.3796787 -0.61760366 4294967295
-3.5760658 5.4079981 -0.74580461 4294967295
-3.5656626 4.9976735 -0.76173627 4294967295
-3.5381744 5.242661 -0.93634206 4294967295
-3.7480493 5.3898697 -0.31621477 4294967295
-3.8534639 5.3495059 -0.49925411 4294967295
-3.7377608 5.3277969 -0.59356731 4294967295
-3.7459135 5.4494743 -0.64622277 4294967295
-4.0111175 5.461524 -0.48315561 4294967295
-3.8021212 5.6744175 -0.34841439 4294967295
-3.9589968 5.5710268 -0.70610553 4294967295
-3.6611533 5.5962868 -0.59219664 4294967295
-3.4590058 5.5006804 -0.66346103 4294967295
-3.6195652 5.3752489 -0.67228705 4294967295
-3.5380254 5.742353 -0.7295745 4294967295
-3.5924611 5.4566102 -0.79064167 4294967295
-3.4245977 5.3424282 -0.55891913 4294967295
-3.6613107 5.4694877 -0.72197384 4294967295
-3.4677031 5.3315778 -0.94549173 4294967295
-3.6547251 5.3752313 -0.44563648 4294967295
-3.7135506 5.3100476 -0.82526475 4294967295
-3.5867271 5.3598628 -0.71983153 4294967295
-3.745939 5.3953676 -0.7264176 4294967295
-3.6906624 5.4096961 -0.86561614 4294967295
-3.700422 5.2626777 -0.68461573 4294967295
-3.809238 5.3146787 -0.38858119 4294967295
-2.6413348 5.8724174 0.033875965 4294967295
-2.7403345 5.9601326 -0.14995462 4294967295
-2.931442 6.2187181 -0.014233194 4294967295
-2.6694643 5.8408847 -0.094280571 4294967295
-2.8317988 6.201673 -0.00073888671 4294967295
-3.1849792 5.9521675 0.11877009 4294967295
-2.9187167 5.8586407 -0.10687247 4294967295
-3.1259243 5.9587855 -0.046087082 4294967295
-3.0961912 5.7981281 0.015001593 4294967295
-2.9319062 5.7249951 -0.19535011 4294967295
-2.8555789 5.8308902 -0.14864244 4294967295
-2.8724985 5.8811569 -0.21968582 4294967295
-3.0645509 5.8436317 -0.15008807 4294967295
-3.0000966 6.0623298 -0.10907615 4294967295
-2.9980106 5.9599605 -0.058551464 4294967295
-2.9952724 5.9702325 0.030377382 4294967295
-3.1337097 6.1773882 0.0028961797 4294967295
-2.9019716 6.2139292 -0.17904046 4294967295
-3.2967277 6.1725888 0.074939288 4294967295
-2.9005344 6.1423874 0.060147543 4294967295
-3.1168613 6.2183509 -0.14560698 4294967295
-3.008276 6.4139237 -0.0033873469 4294967295
-2.8776186 6.4300404 0.097165972 4294967295
-2.9433901 6.2382631 -0.077517807 4294967295
-2.7337933 6.2867765 -0.27124575 4294967295
-2.7082036 6.2475271 -0.11942153 4294967295
-2.6748068 6.3960614 -0.068735361 4294967295
-2.5483825 6.1006818 -0.012267117 4294967295
-2.8698287 6.1390686 -0.10414088 4294967295
-2.6829083 6.2348619 -0.20938469 4294967295
-2.558706 5.9217777 -0.14962173 4294967295
-2.7337875 5.9236755 -0.10648255 4294967295
-2.8969412 6.0298848 -0.089348942 4294967295
-2.7492177 5.7926698 -0.1388289 4294967295
-2.4342914 5.6215286 -0.0098420102 4294967295
-2.8274322 5.6816659 -0.0063067609 4294967295
-2.6361303 5.5173445 -0.21556208 4294967295
-2.7718737 5.6778331 -0.27117857 4294967295
-2.9113054 5.5881739 -0.092558555 4294967295
-2.948766 5.7655263 0.0038132628 4294967295
-2.950532 5.5380244 -0.060487866 4294967295
-2.9963493 5.609776 -0.28807464 4294967295
-2.9592991 5.6910105 -0.16849768 4294967295
-3.0711949 5.707386 -0.31126291 4294967295
-3.3815536 5.8576856 -0.039021414 4294967295
-3.461416 5.8504839 -0.13402556 4294967295
-3.2226326 6.2495422 -0.1287306 4294967295
-3.2020805 5.9396124 -0.18138957 4294967295
-3.5259051 6.0091391 -0.14202107 4294967295
-3.150507 5.9107766 -0.12245067 4294967295
-3.4141896 6.1290469 -0.16156663 4294967295
-3.4226787 5.7087655 0.037626397 4294967295
-3.124264 5.6666131 -0.15436508 4294967295
-3.4052417 5.4873075 -0.043368176 4294967295
-3.1639631 5.6047525 0.20427962 4294967295
-3.3649483 5.7299318 0.052380107 4294967295
-3.1965961 5.4021459 -0.079675853 4294967295
-3.3578813 5.3827276 -0.15733975 4294967295
-3.3598111 5.7490234 -0.35140476 4294967295
-3.5018604 5.522759 -0.1141606 4294967295
-3.3635678 5.7487955 0.018896606 4294967295
-3.3097997 6.4378681 -0.16928016 4294967295
-3.4721818 6.2890296 -0.049608961 4294967295
-3.4621172 6.3920684 -0.035999253 4294967295
-3.3427753 6.1154222 -0.017187748 4294967295
-3.3814855 6.2190776 -0.10780247 4294967295
-3.5690861 6.4171281 0.016661542 4294967295
-3.4691033 6.232388 -0.06836018 4294967295
-3.631134 6.4063783 -0.0004260735 4294967295
-3.4235139 6.2364545 -0.17957754 4294967295
-3.8122554 6.3840561 -0.075033709 4294967295
-3.7078993 6.1272297 -0.14643265 4294967295
-3.6266716 6.2336459 -0.089769378 4294967295
-3.6345608 6.1398416 -0.025895037 4294967295
-3.6592121 5.997787 -0.117805 4294967295
-3.5654776 5.97506 -0.01841029 4294967295
-3.9476299 5.8036609 -0.044675671 4294967295
-3.5688281 5.8971472 0.005131295 4294967295
-3.6816626 5.7805405 -0.16900621 4294967295
-3.7813976 5.5756078 -0.23667429 4294967295
-3.5184298 5.7022376 -0.056240465 4294967295
-3.7810135 5.6147842 -0.13522829 4294967295
-3.5474231 5.723949 -0.09721598 4294967295
-3.5187557 5.6598129 -0.13608004 4294967295
-5.9253354 -9.9902029 -0.19101706 4294967295
-4.1830206 -10.125492 -0.027040707 4294967295
-4.2368946 -2.3840914 -0.15610914 4294967295
-5.8016062 -2.5122838 -0.053973783 4294967295
-6.0586605 -10.072666 -0.1390758 4294967295
-4.0644007 -10.039838 -1.0751156 4294967295
-4.2729959 -2.3565609 -1.0232973 4294967295
-5.8640919 -2.3503733 -0.25928843 4294967295
-2.2741902 -14.933544 -0.68444943 4294967295
-2.02491 -10.332027 -0.93460083 4294967295
-2.102994 -10.304977 0.010007815 4294967295
-2.3221035 -14.845968 -0.077469639 4294967295
-3.9060659 -14.943048 -0.91199499 4294967295
-3.8365111 -10.40775 -0.99557334 4294967295
-3.9731944 -10.305959 -0.26328364 4294967295
-3.9705393 -14.70479 -0.037710357 4294967295
-1.5909966 -3.0918698 -0.25345713 4294967295
-0.80870831 -2.905489 -0.4830713 4294967295
-0.66612685 -1.628678 -0.44917542 4294967295
-1.6983968 -1.9315532 -0.43570277 4294967295
-1.7888821 -3.1939895 -0.38969871 4294967295
-0.56872457 -3.1357772 -0.31038484 4294967295
-0.73778868 -1.8556999 -0.30698597 4294967295
-1.7491409 -1.6853091 -0.45030779 4294967295
-1.6214585 -7.9044571 -0.088670574 4294967295
-0.58202672 -8.0378428 -0.14712116 4294967295
-0.54409552 -6.7816105 -0.3197583 4294967295
-1.7319247 -6.4233518 -0.07059437 4294967295
-1.7020593 -7.9390507 -0.25564897 4294967295
-0.63410872 -7.9294357 -0.047730368 4294967295
-0.55847961 -6.4695072 -0.30405116 4294967295
-1.7230505 -6.8570576 -0.14180844 4294967295
-1.6454521 -11.080914 -0.37702096 4294967295
-0.59695238 -10.962778 -0.49734616 4294967295
-0.67905438 -9.673192 -0.51166981 4294967295
-1.6552088 -9.6835852 -0.59198987 4294967295
-1.5700649 -11.156941 -0.35433838 4294967295
-0.57095313 -10.875472 -0.33221132 4294967295
-0.70981473 -9.7881737 -0.41328833 4294967295
-1.6643575 -9.6333866 -0.43743375 4294967295
-4.8919907 -0.82556224 -0.1011017 4294967295
-4.844162 -2.2043977 -0.026579333 4294967295
-5.9975214 -2.2809207 -0.082561187 4294967295
-6.3076882 -1.0007461 -0.041675344 4294967295
-5.0577116 -2.2321568 -0.19956973 4294967295
-6.1617298 -2.4168637 -0.07660196 4294967295
-4.9448271 -0.94531226 -0.028554516 4294967295
-6.1379066 -1.0133698 -0.090541758 4294967295
-3.8659735 6.6741996 -0.14804134 4294967295
-4.077208 6.6349716 -0.079927787 4294967295
-2.2704282 6.6839342 -0.041660231 4294967295
-2.2504377 6.944181 -0.28014374 4294967295
-5.7017832 -2.7724741 -0.047391854 4294967295
-5.4395533 -4.1868176 -0.096246921 4294967295
-5.0706062 -4.2547808 -0.10285157 4294967295
-5.5705748 -2.7406564 -0.0083090011 4294967295
-5.1305828 -4.2877493 -0.093492165 4294967295
-5.1854482 -5.8148866 -0.20416279 4294967295
-4.7883821 -5.8658795 -0.063425481 4294967295
-5.182631 -4.3027444 -0.14469323 4294967295
-4.9089665 -5.9635787 -0.012942638 4294967295
-4.7527537 -7.2226524 -0.18556131 4294967295
-4.6408763 -7.1753511 -0.086882629 4294967295
-4.8653107 -5.9238315 -0.20403741 4294967295
-4.688601 -7.6451259 -0.095158376 4294967295
-4.3166728 -8.9361181 0.040924862 4294967295
-4.4694881 -8.9726562 -0.059974913 4294967295
-4.6121244 -7.4829593 -0.029391542 4294967295
-4.3889885 -8.9537907 0.18158026 4294967295
-4.2596121 -10.672656 -0.079840437 4294967295
-3.9000218 -10.47777 -0.11102584 4294967295
-4.2642541 -9.0749435 -0.21304034 4294967295
-4.289609 -10.919209 -0.13669701 4294967295
-3.9300072 -12.009936 -0.022412576 4294967295
-3.8316312 -11.969521 -0.09250249 4294967295
-3.8871756 -10.524529 -0.09325134 4294967295
-3.7712288 -12.196726 -0.034514006 4294967295
-3.7959485 -13.669609 0.0088686105 4294967295
-3.5600348 -13.487353 -0.11716838 4294967295
-3.9404988 -12.207611 -0.18856342 4294967295
-3.6588333 -13.829021 -0.26362067 4294967295
-3.3094249 -14.982762 -0.11440893 4294967295
-3.2984908 -15.072515 -0.13340102 4294967295
-3.3466661 -13.641999 -0.20499673 4294967295
-4.7324719 -4.2955928 0.062711388 4294967295
-4.3389411 -5.5796289 0.11997428 4294967295
-4.2708778 -5.6350017 -0.078031808 4294967295
-4.6771626 -4.3980427 -0.13883425 4294967295
-4.0111198 -7.3893318 -0.11939065 4294967295
-4.0123262 -8.830822 -0.062910542 4294967295
-3.7975044 -8.9456768 -0.23526971 4294967295
-4.1600904 -7.2836938 -0.15869032 4294967295
-3.5718708 -10.490231 0.044995245 4294967295
-3.3801124 -11.963808 -0.30681983 4294967295
-3.1591995 -11.838107 0.13249764 4294967295
-3.3722491 -10.695641 -0.055323254 4294967295
-3.036921 -13.644238 -0.074498206 4294967295
-2.7304537 -15.250598 -0.055331573 4294967295
-2.6522882 -14.776016 -0.12871607 4294967295
-2.9557288 -13.619059 0.060819909 4294967295
-4.171267 -2.5357072 -0.1276001 4294967295
-4.0787477 -3.9451487 -0.17819586 4294967295
-4.0794444 -3.8307378 0.023280514 4294967295
-4.1226525 -2.4459257 -0.16090862 4294967295
-4.0203052 -4.2069125 -0.18863803 4294967295
-3.7079411 -5.4774518 -0.11925426 4294967295
-3.7286923 -5.6095629 -0.084698483 4294967295
-4.0086565 -4.2034111 -0.03700028 4294967295
-3.6193759 -5.6991582 -0.13858114 4294967295
-3.7102022 -7.1429286 0.072462671 4294967295
-3.3274469 -7.201643 -0.27468035 4294967295
-3.7790735 -5.6896753 0.15100074 4294967295
-3.418225 -7.4370608 -0.068781458 4294967295
-3.2778175 -8.6760311 -0.19704181 4294967295
-3.1559882 -8.66745 -0.22750179 4294967295
-3.2398276 -7.3861852 -0.10037524 4294967295
-3.2483268 -8.9554977 -0.11457357 4294967295
-2.9866807 -10.181627 -0.18247463 4294967295
-3.0744047 -10.35175 -0.14161226 4294967295
-3.0772064 -8.8430099 -0.12393199 4294967295
-3.0329216 -10.378342 -0.17271996 4294967295
-2.6799262 -11.997521 0.061846808 4294967295
-2.6774814 -11.850516 0.027239097 4294967295
-2.8509555 -10.459898 0.099328429 4294967295
-2.7771757 -11.900399 -0.032397736 4294967295
-2.4499931 -13.166445 -0.1476554 4294967295
-2.1620233 -13.276255 -0.2227951 4294967295
-2.4565771 -11.951555 -0.059096728 4294967295
-2.520077 -13.574875 -0.11741966 4294967295
-2.1391523 -14.849509 0.091018721 4294967295
-1.9351633 -14.971395 -0.03031167 4294967295
-2.2934968 -13.500278 -0.072760664 4294967295
-3.2041137 -2.8307564 -0.019311301 4294967295
-3.1951027 -3.4248331 -0.11022749 4294967295
-3.1924548 -3.504353 -0.13902552 4294967295
-3.2519965 -2.8383222 0.0097905109 4294967295
-3.136431 -3.8899527 -0.043049071 4294967295
-3.0959034 -4.3173022 0.0034523443 4294967295
-3.1602983 -4.2900729 -0.14440338 4294967295
-3.2202322 -3.9027109 -0.18985534 4294967295
-2.9633379 -5.1109347 -0.093280748 4294967295
-2.9062538 -5.3810849 -0.030963667 4294967295
-2.8690565 -5.2287321 -0.17903337 4294967295
-2.9205837 -5.0306969 -0.035473291 4294967295
-2.858211 -5.6435556 -0.018075775 4294967295
-2.4994719 -6.1141791 -0.019917112 4294967295
-2.5636115 -6.058392 -0.10250633 4294967295
-2.6692383 -5.7747235 -0.24027392 4294967295
-2.5500443 -6.7585993 0.00074607681 4294967295
-2.3869286 -7.1312318 -0.22198284 4294967295
-2.5434341 -7.0937848 -0.10328893 4294967295
-2.5113127 -6.7015953 0.075812392 4294967295
-2.5341461 -7.6844072 0.043280888 4294967295
-2.1349947 -8.2670517 0.058339294 4294967295
-2.4159594 -8.1838007 -0.1201947 4294967295
-2.6356328 -7.8101854 -0.23395242 4294967295
-2.1969395 -8.6771374 -0.10396198 4294967295
-2.0858624 -9.1058331 -0.018771082 4294967295
-2.147454 -9.1010275 0.20799807 4294967295
-2.2267854 -8.6112003 -0.2444061 4294967295
-2.171488 -9.7454119 0.0018203696 4294967295
-1.9586152 -9.9796495 -0.016506653 4294967295
-1.8558418 -10.146556 -0.0528429 4294967295
-2.1267824 -9.5980244 -0.15821171 4294967295
-4.0298309 4.5015674 -0.077306136 4294967295
-3.7840025 4.309629 0.0052353456 4294967295
-3.7399635 4.3851585 -0.057643343 4294967295
-3.9402242 4.4418354 -0.31908661 4294967295
-3.6647358 3.9433236 -0.22694221 4294967295
-3.6117759 3.6188703 -0.061151814 4294967295
-3.6357768 3.6216891 -0.25313202 4294967295
-3.6221263 3.7995899 -0.095537946 4294967295
-3.7602355 3.2164054 0.11131893 4294967295
-3.5381472 2.9795582 -0.068892166 4294967295
-3.6717756 2.9910491 -0.15724467 4294967295
-3.7375689 3.2886102 -0.064272955 4294967295
-3.5214942 2.6269407 -0.014346454 4294967295
-3.4641724 2.4500675 -0.25455749 4294967295
-3.505091 2.3446999 -0.053266909 4294967295
-3.5786161 2.7571518 0.038561068 4294967295
-3.3380854 2.1588516 -0.10628443 4294967295
-3.4937871 1.7909024 0.079399794 4294967295
-3.3392 1.7428476 -0.11083337 4294967295
-3.528898 1.972472 0.0260351 4294967295
-3.1997175 1.4597648 -0.04499295 4294967295
-3.2184603 1.0577699 -0.12668224 4294967295
-3.2674241 1.1036433 -0.15914203 4294967295
-3.3937023 1.1871459 -0.2560083 4294967295
-3.1457109 0.82828951 -0.31017429 4294967295
-3.0625439 0.50930953 -0.10107255 4294967295
-3.0038126 0.51117378 -0.25987792 4294967295
-3.1251953 0.83981168 -0.17785157 4294967295
-3.2250843 0.13993749 0.074225217 4294967295
-3.1618147 -0.22614069 -0.063052073 4294967295
-2.9812288 -0.21930344 0.040616211 4294967295
-3.0964754 0.082109235 -0.15003344 4294967295
-2.3766174 4.4060974 -0.023044586 4294967295
-2.5104523 4.0447807 -0.0035295316 4294967295
-2.3501506 4.115983 -0.092664018 4294967295
-2.3761082 4.7269831 0.10325436 4294967295
-2.4349701 4.1138372 0.005283183 4294967295
-2.5407507 3.7249999 -0.036661092 4294967295
-2.4448054 3.6410453 -0.10529751 4294967295
-2.3852265 3.8344986 -0.093371302 4294967295
-2.211776 3.2838016 0.12904693 4294967295
-2.4625468 2.9714224 -0.053997975 4294967295
-2.2539074 3.0208809 -0.20632693 4294967295
-2.4182656 3.0597451 -0.12180464 4294967295
-2.5053678 2.6317463 0.013243471 4294967295
-2.4003565 2.1977053 -0.23183645 4294967295
-2.3458924 2.2028821 -0.020261824 4294967295
-2.4605656 2.4184761 -0.23207454 4294967295
-2.7142413 1.833091 -0.041754212 4294967295
-2.550302 1.6648779 -0.13795997 4294967295
-2.3237565 1.6215502 -0.089516535 4294967295
-2.5367093 1.940021 0.065188661 4294967295
-2.4913642 1.2767755 0.072087675 4294967295
-2.2975471 0.82417911 -0.11678419 4294967295
-2.4440949 1.0310233 -0.049785711 4294967295
-2.2741454 1.5205948 -0.15624954 4294967295
-2.4827206 0.50602967 -0.19611432 4294967295
-2.2831359 0.32581875 0.065014228 4294967295
-2.3350832 0.40984529 -0.068844073 4294967295
-2.3244221 0.69911027 -0.040309977 4294967295
-2.3644216 0.049343951 -0.10715458 4294967295
-2.3296638 -0.12059359 -0.15832022 4294967295
-2.3402874 -0.062159121 -0.28137928 4294967295
-2.4943895 -0.096789695 -0.08180771 4294967295
-3.8471565 -14.987019 -0.074028239 4294967295
-4.1706648 -15.199386 -0.0835739 4294967295
-1.6800928 -14.998911 -0.1043731 4294967295
-1.926228 -15.039191 -0.14730899 4294967295
-1.3717961 -2.6070745 -0.30440834 4294967295
-1.1752629 -2.6718197 -0.4903414 4294967295
-1.229808 -2.5481188 -0.35544893 4294967295
-1.2738461 -2.6276827 -0.43371919 4294967295
-1.0585486 -2.6875792 -0.37440258 4294967295
-1.0752288 -2.5377443 -0.33785418 4294967295
-1.0520078 -2.6480949 -0.41704932 4294967295
-1.0855985 -2.528928 -0.44535911 4294967295
-1.3069665 -2.6721129 -0.29702225 4294967295
-1.4148657 -2.4446964 -0.47839502 4294967295
-1.4196304 -2.6538126 -0.29116848 4294967295
-1.4285656 -2.6859746 -0.31795323 4294967295
-1.0052401 -2.4516692 -0.59620464 4294967295
-0.97845042 -2.4970698 -0.32395777 4294967295
-1.0111319 -2.7427099 -0.43348065 4294967295
-0.93403018 -2.5850477 -0.30596492 4294967295
-0.97258949 -2.5829959 -0.42993703 4294967295
-1.0599904 -2.6098444 -0.31815493 4294967295
-0.87408477 -2.1945424 -0.40944284 4294967295
-0.82810354 -2.4552393 -0.42002204 4294967295
-0.92702812 -2.2416599 -0.41515931 4294967295
-0.90810263 -2.2733088 -0.51562911 4294967295
-0.94316095 -2.2751138 -0.32709888 4294967295
-1.0225158 -2.2483397 -0.43958285 4294967295
-1.0370063 -2.2303097 -0.27659112 4294967295
-0.8785432 -2.2566433 -0.47343448 4294967295
-1.3267927 -2.5821416 -0.25307319 4294967295
-1.4596708 -2.5864468 -0.39843902 4294967295
-1.4017005 -2.313282 -0.35506445 4294967295
-1.495753 -2.7257318 -0.32869312 4294967295
-1.3700101 -2.3702862 -0.1809006 4294967295
-1.4548337 -2.3043172 -0.22712491 4294967295
-1.2908396 -2.3634377 -0.39125842 4294967295
-1.537302 -2.3596199 -0.30204064 4294967295
-1.4614002 -2.1381655 -0.37494051 4294967295
-1.2823361 -2.2316337 -0.36217228 4294967295
-1.307667 -2.0729215 -0.37617537 4294967295
-1.4038235 -2.1592329 -0.34662044 4294967295
-1.2613767 -2.0439804 -0.24442351 4294967295
-1.4299731 -2.0806515 -0.26218012 4294967295
-1.1330171 -2.0278671 -0.42708376 4294967295
-1.2991512 -1.8316909 -0.20430398 4294967295
-1.2735417 -2.0702307 -0.30220976 4294967295
-1.2577111 -2.1779628 -0.38866672 4294967295
-1.3555437 -1.9481244 -0.60886818 4294967295
-0.99214077 -2.1630337 -0.32679299 4294967295
-1.0639155 -2.0961449 -0.41525748 4294967295
-1.0593926 -2.2393332 -0.32458287 4294967295
-1.1351634 -2.4797082 -0.3553966 4294967295
-1.1300427 -2.3956573 -0.39463374 4294967295
-1.0968579 -2.3671741 -0.26715603 4294967295
-1.1993037 -2.4109995 -0.28937289 4294967295
-1.0769671 -2.427304 -0.34424895 4294967295
-1.2567134 -2.4023051 -0.34092429 4294967295
-1.0841078 -2.176192 -0.35912368 4294967295
-1.2266382 -2.4606307 -0.37321591 4294967295
-1.280867 -2.429755 -0.3758384 4294967295
-1.346017 -2.3897917 -0.48134848 4294967295
-1.1309257 -2.3060188 -0.21881717 4294967295
-1.1476184 -2.3135998 -0.20378697 4294967295
-1.1408263 -2.4771862 -0.42433041 4294967295
-1.3804607 -2.3374932 -0.28336534 4294967295
-1.1643093 -2.4278529 -0.38565767 4294967295
-1.2175999 -2.4773879 -0.64403468 4294967295
-1.4098165 -2.3712146 -0.3059561 4294967295
-1.3165452 -2.4203253 -0.35328269 4294967295
-1.1297158 -2.3797133 -0.24114704 4294967295
-1.2150937 -2.2600605 -0.19313009 4294967295
-1.1205324 -2.3156948 -0.22560935 4294967295
-1.1826402 -2.3157802 -0.22915593 4294967295
-1.1686046 -2.4272406 -0.4500536 4294967295
-1.2079347 -2.2788124 -0.25280991 4294967295
-1.1157302 -2.0209043 -0.46662313 4294967295
-1.1302886 -2.1164358 -0.37932485 4294967295
-1.2696424 -2.2467823 -0.35899681 4294967295
-1.3116819 -2.0721226 -0.54045486 4294967295
-1.1491719 -2.0239801 -0.41235358 4294967295
-1.1201378 -2.0740395 -0.34864163 4294967295
-1.2095879 -2.0008445 -0.45052469 4294967295
-1.1008158 -1.8576902 -0.38654956 4294967295
-1.2249979 -1.7975091 -0.44610631 4294967295
-1.2378234 -2.0399046 -0.25605929 4294967295
-1.3926944 -2.1348143 -0.50022429 4294967295
-1.2530001 -2.0196464 -0.55593228 4294967295
-1.029996 -2.0256786 -0.52598083 4294967295
-1.3432615 -1.8959775 -0.39581904 4294967295
-1.3327296 -2.2673764 -0.30263239 4294967295
-1.2675657 -1.9541174 -0.50872523 4294967295
-1.0334786 -2.2495716 -0.28331202 4294967295
-1.1160946 -2.1541612 -0.40956667 4294967295
-1.1443412 -1.9215729 -0.27879298 4294967295
-1.1951414 -1.9820391 -0.33690932 4294967295
-1.154876 -2.0469191 -0.46284834 4294967295
-1.226836 -2.0665917 -0.19047807 4294967295
-1.1202176 -2.0981932 -0.31248018 4294967295
-1.0005746 -1.715517 -0.36601031 4294967295
-1.1622856 -2.8613968 -0.4846974 4294967295
-1.2241894 -2.7555034 -0.40319526 4294967295
-1.1602023 -2.8683188 -0.43300909 4294967295
-1.1777647 -2.8707204 -0.38280863 4294967295
-1.0742184 -2.8747292 -0.23290314 4294967295
-1.1683553 -2.9318995 -0.31344476 4294967295
-1.0480072 -2.7475085 -0.29194406 4294967295
-1.1574171 -2.6525145 -0.31686369 4294967295
-1.3218514 -2.7664051 -0.54851544 4294967295
-1.3183751 -2.7137792 -0.10834587 4294967295
-1.1295944 -2.8778458 -0.48653534 4294967295
-0.88420528 -2.7335649 -0.28970405 4294967295
-1.3614838 -2.7566574 -0.38852879 4294967295
-1.200025 -2.8571711 -0.39970922 4294967295
-1.337304 -2.6829503 -0.460466 4294967295
-1.2412951 -2.9740765 -0.36288029 4294967295
-1.2012824 -2.7846119 -0.20750965 4294967295
-1.1072201 -2.6487474 -0.22890398 4294967295
-1.1632196 -2.9013481 -0.21686774 4294967295
-1.1799071 -2.7487383 -0.40421811 4294967295
-1.0651973 -2.9462328 -0.30423078 4294967295
-1.2859786 -2.9153874 -0.22399677 4294967295
-1.2944666 -2.6391909 -0.43039867 4294967295
-1.2451245 -2.8760934 -0.39945912 4294967295
-1.2784399 -7.5605178 -0.034988344 4294967295
-1.2342415 -7.5471687 -0.079970442 4294967295
-1.1435637 -7.2970824 -0.1952607 4294967295
-1.2342672 -7.4960799 -0.025367834 4294967295
-0.9029178 -7.4861355 -0.30745953 4294967295
-1.1085501 -7.5027504 -0.18126744 4294967295
-0.97171611 -7.4421592 -0.30990604 4294967295
-1.0280036 -7.3370609 -0.21084714 4294967295
-1.3767639 -7.6595726 -0.32792872 4294967295
-1.1405357 -7.5033889 -0.082120307 4294967295
-1.4873191 -7.3672767 -0.077732585 4294967295
-1.3584497 -7.5039229 0.0067107813 4294967295
-0.92573953 -7.2854815 -0.14918551 4294967295
-0.8123619 -7.344533 -0.036816224 4294967295
-0.86873031 -7.114994 -0.048164662 4294967295
-0.98187971 -7.4391003 -0.12954472 4294967295
-1.0574918 -7.2106485 -0.041237608 4294967295
-0.74187738 -7.4693828 -0.19079033 4294967295
-1.0657171 -7.1997094 0.015046717 4294967295
-1.0004129 -7.115653 -0.20382038 4294967295
-0.79337054 -7.2571192 -0.18391715 4294967295
-0.85305542 -7.1445909 -0.10782545 4294967295
-0.80105221 -7.1203842 -0.20220694 4294967295
-0.85929215 -7.1480446 -0.24269542 4294967295
-1.0245119 -6.9028106 -0.12101617 4294967295
-1.087278 -7.0822225 -0.18210961 4294967295
-1.4550091 -7.305047 -0.10154445 4294967295
-1.2959818 -7.2057476 -0.028561976 4294967295
-1.4751375 -7.158978 -0.1730004 4294967295
-1.5011154 -7.3412418 -0.13971807 4294967295
-1.5796601 -7.105547 -0.1970775 4294967295
-1.5664567 -7.3205423 -0.2375354 4294967295
-1.3835111 -7.1252093 0.030745642 4294967295
-1.3628304 -7.2264762 -0.32365471 4294967295
-1.4667958 -7.2237225 -0.027921993 4294967295
-1.2382643 -7.2303481 -0.2459911 4294967295
-1.3905118 -6.8973708 -0.22575416 4294967295
-1.2506341 -6.973711 -0.23620154 4294967295
-1.3280647 -6.8409057 -0.18134192 4294967295
-1.3517227 -7.0412841 -0.12703796 4294967295
-1.2201681 -6.9627786 -0.11684378 4294967295
-1.4236341 -6.9148216 -0.016382536 4294967295
-1.3354362 -6.960207 -0.11133914 4294967295
-1.1124353 -7.0207992 0.024086257 4294967295
-1.0852991 -6.9051385 -0.11710735 4294967295
-1.1954951 -7.154964 -0.06242501 4294967295
-1.1073121 -6.8537517 -0.10732976 4294967295
-1.0063357 -6.9642177 -0.2724013 4294967295
-1.1205161 -7.1840444 -0.091254085 4294967295
-1.1133251 -7.3251095 -0.22342117 4294967295
-1.1176178 -7.0847354 -0.11603972 4294967295
-1.3528167 -7.1878037 -0.079047933 4294967295
-1.1076777 -7.2110658 -0.22124499 4294967295
-1.0943773 -7.1675153 -0.12044298 4294967295
-1.0182583 -7.4110808 -0.33179504 4294967295
-1.3297495 -7.3144875 -0.17880356 4294967295
-1.2488554 -7.3184729 -0.1405675 4294967295
-1.1025004 -7.3261456 -0.2147723 4294967295
-1.1319945 -7.24968 -0.3200241 4294967295
-1.0717351 -7.3787899 -0.25022012 4294967295
-1.2930471 -7.4459372 -0.13445067 4294967295
-1.2268816 -7.3745065 -0.25160265 4294967295
-1.2785546 -7.2392402 -0.12617706 4294967295
-1.3125187 -7.3184943 -0.18265478 4294967295
-1.2931173 -7.1822019 -0.27176777 4294967295
-1.2856445 -7.2488298 -0.089894414 4294967295
-1.2517681 -7.0658164 -0.19485769 4294967295
-1.1037443 -7.0847707 -0.16379102 4294967295
-1.1495837 -7.2547984 -0.26629335 4294967295
-1.25754 -7.2732921 -0.1640908 4294967295
-1.077526 -7.0651989 -0.14724347 4294967295
-1.0609056 -7.3230972 -0.120535 4294967295
-1.2665441 -6.8989897 -0.011080445 4294967295
-1.3793559 -7.0061593 -0.19103573 4294967295
-1.0766231 -7.1527901 -0.209728 4294967295
-1.1899415 -6.9261107 -0.1503737 4294967295
-1.0916326 -7.0872979 -0.15692025 4294967295
-1.033337 -6.8606453 -0.11604991 4294967295
-1.2963353 -6.6714044 -0.2613937 4294967295
-0.92979181 -6.564239 -0.26439795 4294967295
-1.0233836 -6.7959905 -0.07077644 4294967295
-1.1049472 -6.7720466 -0.2106674 4294967295
-1.3663917 -6.7192421 -0.22257973 4294967295
-1.3471514 -6.6911693 -0.21039394 4294967295
-1.3713214 -6.7438416 -0.12711567 4294967295
-1.1597015 -6.8918285 -0.42965856 4294967295
-1.1585793 -6.9629626 -0.050754599 4294967295
-1.3407351 -7.0216289 -0.077278547 4294967295
-1.3490254 -6.8931174 -0.00063653296 4294967295
-1.206181 -6.860518 -0.13774726 4294967295
-1.127375 -6.7842655 -0.12529998 4294967295
-1.2602584 -7.0072455 -0.04673478 4294967295
-0.93803036 -6.8583698 -0.053670436 4294967295
-1.1997941 -6.7942443 -0.15475547 4294967295
-1.0678194 -6.705883 -0.14119193 4294967295
-1.1948255 -6.7723551 -0.00021707319 4294967295
-1.1716816 -7.5903745 -0.14471957 4294967295
-1.2420121 -7.8455215 -0.18646865 4294967295
-1.1664718 -7.6450005 -0.046863329 4294967295
-1.1329503 -7.7723436 -0.24127409 4294967295
-1.2483258 -7.8684921 -0.18082494 4294967295
-1.1103495 -7.7031851 -0.21245214 4294967295
-1.1338968 -7.4215479 -0.026292322 4294967295
-1.1787598 -7.4078908 -0.01899421 4294967295
-0.96887678 -7.4694085 0.02288669 4294967295
-1.3321563 -7.660449 -0.17482303 4294967295
-1.2346287 -7.6539698 -0.30518961 4294967295
-1.1529375 -7.5574622 -0.11186563 4294967295
-1.188869 -7.4373751 -0.15169252 4294967295
-1.2419547 -7.6303635 -0.17976815 4294967295
-1.1330463 -7.732379 -0.18429552 4294967295
-1.3434145 -7.7180724 -0.062725708 4294967295
-1.0650688 -7.6078 -0.047600705 4294967295
-1.1304772 -7.628778 -0.25674033 4294967295
-1.1704826 -7.6897631 -0.081578963 4294967295
-1.1097736 -7.7967105 -0.26232475 4294967295
-1.2637446 -7.6738529 0.11757302 4294967295
-1.2850616 -7.6831822 -0.22036529 4294967295
-1.3519958 -7.7224202 -0.25799716 4294967295
-1.4608628 -7.783874 -0.15066625 4294967295
-1.3365589 -10.575547 -0.42873403 4294967295
-1.2615643 -10.545857 -0.43428019 4294967295
-1.1017984 -10.431747 -0.31746763 4294967295
-1.3797884 -10.704536 -0.35052267 4294967295
-1.1242936 -10.629977 -0.23255144 4294967295
-1.0673883 -10.517455 -0.44945058 4294967295
-0.99506038 -10.720737 -0.24475963 4294967295
-1.0865613 -10.621609 -0.41367495 4294967295
-1.4601004 -10.51815 -0.26689747 4294967295
-1.4071705 -10.492756 -0.42644224 4294967295
-1.3152615 -10.464845 -0.41473004 4294967295
-1.2727653 -10.622045 -0.51838851 4294967295
-0.92349178 -10.497235 -0.38409191 4294967295
-0.99678171 -10.657701 -0.32488567 4294967295
-0.85618562 -10.449582 -0.57048839 4294967295
-0.97090542 -10.527224 -0.45427835 4294967295
-1.0237809 -10.358947 -0.33451071 4294967295
-0.91676837 -10.325949 -0.15178593 4294967295
-0.8345654 -10.106581 -0.1386963 4294967295
-0.94950581 -10.42926 -0.2156564 4294967295
-1.1376797 -10.142867 -0.28190202 4294967295
-0.91866994 -10.120101 -0.33297929 4294967295
-0.89436537 -10.179261 -0.38410735 4294967295
-0.93774182 -10.008112 -0.27602088 4294967295
-0.86030281 -10.273075 -0.52455217 4294967295
-1.1221284 -10.114851 -0.28941891 4294967295
-1.3873576 -10.512358 -0.30053204 4294967295
-1.4829817 -10.454494 -0.32924199 4294967295
-1.3690734 -10.302634 -0.39939404 4294967295
-1.1641462 -10.514669 -0.43407744 4294967295
-1.3523175 -10.345568 -0.40446028 4294967295
-1.3733819 -10.370008 -0.44982859 4294967295
-1.4263055 -10.017352 -0.41031465 4294967295
-1.3254594 -10.22627 -0.38615501 4294967295
-1.6065825 -10.203093 -0.35471559 4294967295
-1.3243631 -10.379292 -0.45220953 4294967295
-1.4292433 -10.116876 -0.24247493 4294967295
-1.4096088 -10.058987 -0.46023244 4294967295
-1.5206715 -9.9892406 -0.14279236 4294967295
-1.4336553 -10.08588 -0.31006908 4294967295
-1.3657883 -9.9911146 -0.19948581 4294967295
-1.3485057 -10.031716 -0.3488827 4294967295
-1.2642127 -9.9272375 -0.41502786 4294967295
-1.0121208 -10.157546 -0.34551337 4294967295
-1.0960763 -9.8823128 -0.29235557 4294967295
-1.0199353 -9.9857502 -0.32308728 4294967295
-1.1411695 -10.238966 -0.32939249 4294967295
-1.0163155 -9.98983 -0.24066693 4294967295
-1.2410533 -10.368682 -0.55812001 4294967295
-0.9543851 -10.387367 -0.406158 4294967295
-1.2030675 -10.104477 -0.37721783 4294967295
-1.0893282 -10.19839 -0.44029745 4294967295
-1.1692357 -10.262727 -0.39517039 4294967295
-1.1993072 -10.382408 -0.31313428 4294967295
-1.2220407 -10.143517 -0.37383732 4294967295
-1.2591751 -10.259105 -0.64394861 4294967295
-1.1089426 -10.400201 -0.50192225 4294967295
-1.2493563 -10.198166 -0.33335999 4294967295
-1.2108907 -10.343129 -0.49878308 4294967295
-1.3525704 -10.391707 -0.39662024 4294967295
-1.3635798 -10.140107 -0.39887512 4294967295
-1.1383425 -10.389934 -0.2290004 4294967295
-1.2479079 -10.326012 -0.40512133 4294967295
-1.0106977 -10.335469 -0.20673001 4294967295
-1.1662517 -10.230167 -0.44348681 4294967295
-1.1391014 -10.213788 -0.33809492 4294967295
-1.1343042 -10.199217 -0.40984085 4294967295
-1.1545751 -10.164915 -0.51226056 4294967295
-1.0998813 -10.154122 -0.39152935 4294967295
-1.4359323 -10.222869 -0.39665249 4294967295
-1.1788688 -10.397466 -0.40273774 4294967295
-1.0933572 -10.160714 -0.43365723 4294967295
-1.039137 -9.8654423 -0.47111955 4294967295
-1.1771333 -9.9609909 -0.43634167 4294967295
-1.1115545 -10.029078 -0.37727463 4294967295
-1.4637995 -9.9963026 -0.31988594 4294967295
-1.0104058 -9.9895267 -0.4403711 4294967295
-1.2545985 -9.8934803 -0.336418 4294967295
-1.1769224 -9.8255377 -0.38695607 4294967295
-0.96686691 -10.057466 -0.51761609 4294967295
-1.2080015 -9.9685774 -0.3094911 4294967295
-1.1978412 -9.9485035 -0.2714971 4294967295
-1.2765698 -9.8132362 -0.38830703 4294967295
-1.1269492 -9.9156446 -0.37915111 4294967295
-1.4496489 -9.9626389 -0.3040396 4294967295
-1.3175081 -10.024837 -0.55935723 4294967295
-1.2195263 -10.133135 -0.17199381 4294967295
-1.1959423 -9.8828363 -0.14343895 4294967295
-1.17372 -9.8974695 -0.33221188 4294967295
-1.2026105 -9.9435968 -0.23209742 4294967295
-1.2436777 -9.9973536 -0.44011968 4294967295
-1.2335069 -9.9436569 -0.16685721 4294967295
-1.1089609 -9.9872971 -0.40952045 4294967295
-1.2898324 -9.9163074 -0.22130939 4294967295
-1.1803303 -9.9451914 -0.54494935 4294967295
-1.3102092 -9.7454948 -0.43951878 4294967295
-1.2726403 -10.858219 -0.52657235 4294967295
-1.3000665 -10.869069 -0.35011187 4294967295
-1.1546786 -10.910704 -0.46891031 4294967295
-1.1934633 -10.823463 -0.28874585 4294967295
-1.2788858 -10.67327 -0.38075873 4294967295
-1.4335606 -10.861504 -0.36582679 4294967295
-1.2388353 -10.476607 -0.4390634 4294967295
-1.1890569 -10.693083 -0.46854955 4294967295
-1.2166464 -10.667215 -0.44419444 4294967295
-1.2259241 -10.665665 -0.32861155 4294967295
-1.2876546 -10.465011 -0.34794062 4294967295
-1.3102299 -10.638709 -0.40831518 4294967295
-1.0461131 -10.858915 -0.4532204 4294967295
-1.3232594 -10.416904 -0.47351643 4294967295
-1.2979646 -10.733686 -0.27560231 4294967295
-1.1663464 -11.066146 -0.52440029 4294967295
-1.0259625 -10.651694 -0.45640391 4294967295
-1.3361807 -10.531727 -0.2652888 4294967295
-1.1403637 -10.736102 -0.42587689 4294967295
-1.1808231 -10.736868 -0.5082922 4294967295
-1.2376286 -10.677953 -0.3811695 4294967295
-1.2728724 -10.778529 -0.48695853 4294967295
-1.1472838 -10.867512 -0.48517025 4294967295
-1.2044238 -10.651483 -0.24286151 4294967295
-5.768322 -1.963474 0.10640145 4294967295
-5.7809277 -1.8149543 -0.14576814 4294967295
-5.4731741 -1.6804906 -0.26163295 4294967295
-5.7810578 -1.8305314 -0.026626263 4294967295
-5.4479885 -1.8843911 -0.21300328 4294967295
-5.4633622 -1.8795346 -0.15263173 4294967295
-5.3817573 -2.0410943 -0.018078363 4294967295
-5.3966608 -1.8414897 -0.049100451 4294967295
-5.752315 -1.8037277 -0.22187766 4294967295
-5.6661386 -1.8375841 -0.17618424 4294967295
-5.7000985 -1.8078967 -0.11399627 4294967295
-5.8252916 -1.7942529 -0.16013861 4294967295
-5.3258424 -1.919927 -0.093292683 4294967295
-5.4021211 -1.7396877 -0.045671865 4294967295
-5.3169193 -1.6844788 0.068065166 4294967295
-5.1797228 -1.9758193 -0.057870809 4294967295
-5.334796 -1.755594 -0.17127661 4294967295
-5.1591325 -1.5410436 0.01984527 4294967295
-5.3066463 -1.5939171 -0.20897056 4294967295
-5.3337059 -1.6124059 -0.10868626 4294967295
-5.2996087 -1.5629616 -0.046277795 4294967295
-5.2377267 -1.6066535 -0.0039371708 4294967295
-5.3777084 -1.471427 -0.1735384 4294967295
-5.2547755 -1.3711363 -0.15691712 4294967295
-5.3381052 -1.2664682 -0.12123527 4294967295
-5.4100914 -1.4075089 -0.091169707 4294967295
-5.7450976 -1.5138243 -0.036624454 4294967295
-5.8579235 -1.715029 -0.27208844 4294967295
-5.7562656 -1.7194625 0.0069683469 4294967295
-5.9137239 -1.5785245 0.081118628 4294967295
-5.8337612 -1.6800534 0.083165422 4294967295
-5.7905121 -1.6120921 -0.12753806 4294967295
-5.8451457 -1.4751415 -0.16339585 4294967295
-5.8500085 -1.5817873 -0.1365567 4294967295
-5.8062158 -1.6109482 -0.1736314 4294967295
-5.7561545 -1.4407517 0.048771203 4294967295
-5.758512 -1.5445998 -0.086499184 4294967295
-5.7414098 -1.3799394 -0.0092076976 4294967295
-5.5427694 -1.484669 -0.036663976 4294967295
-5.7422271 -1.3620577 0.13621414 4294967295
-5.5985641 -1.3307014 -0.016816819 4294967295
-5.7261887 -1.5156375 0.014827897 4294967295
-5.4494495 -1.4989387 -0.21451767 4294967295
-5.6790128 -1.3089817 0.060134009 4294967295
-5.578866 -1.3124293 0.066449031 4294967295
-5.5103679 -1.3050659 -0.067321174 4294967295
-5.3603988 -1.0881684 0.037865423 4294967295
-5.5583787 -1.3238894 -0.1737088 4294967295
-5.3672738 -1.6802284 -0.017302183 4294967295
-5.4905167 -1.7099128 0.11539982 4294967295
-5.5424008 -1.5673101 -0.1605114 4294967295
-5.7468848 -1.7153976 -0.10603992 4294967295
-5.6632686 -1.4924133 -0.066232361 4294967295
-5.6402183 -1.4656117 -0.052123819 4294967295
-5.5160894 -1.600019 0.017686488 4294967295
-5.5884356 -1.7281264 -0.080090187 4294967295
